ncols		367
nrows		32
xllcorner	247722.290775
yllcorner	1488910.84066
cellsize	5.000000
NODATA_value	-9999
-9999.000 -9999.000 -9999.000 -9999.000 -9999.000 -9999.000 -9999.000 -9999.000 -9999.000 -9999.000 -9999.000 -9999.000 -9999.000 -9999.000 -9999.000 -9999.000 -9999.000 -9999.000 -9999.000 -9999.000 -9999.000 -9999.000 -9999.000 -9999.000 -9999.000 -9999.000 -9999.000 -9999.000 -9999.000 -9999.000 -9999.000 -9999.000 -9999.000 -9999.000 -9999.000 -9999.000 -9999.000 -9999.000 -9999.000 -9999.000 -9999.000 -9999.000 -9999.000 -9999.000 -9999.000 -9999.000 -9999.000 -9999.000 -9999.000 -9999.000 -9999.000 -9999.000 -9999.000 -9999.000 -9999.000 -9999.000 -9999.000 -9999.000 -9999.000 -9999.000 -9999.000 -9999.000 -9999.000 -9999.000 -9999.000 -9999.000 -9999.000 -9999.000 -9999.000 -9999.000 -9999.000 -9999.000 -9999.000 -9999.000 -9999.000 -9999.000 -9999.000 -9999.000 -9999.000 -9999.000 -9999.000 -9999.000 -9999.000 -9999.000 -9999.000 -9999.000 -9999.000 -9999.000 -9999.000 -9999.000 -9999.000 -9999.000 -9999.000 -9999.000 -9999.000 -9999.000 -9999.000 -9999.000 -9999.000 -9999.000 -9999.000 -9999.000 -9999.000 -9999.000 -9999.000 -9999.000 -9999.000 -9999.000 -9999.000 -9999.000 -9999.000 -9999.000 -9999.000 -9999.000 -9999.000 -9999.000 -9999.000 -9999.000 -9999.000 -9999.000 -9999.000 -9999.000 -9999.000 -9999.000 -9999.000 -9999.000 -9999.000 -9999.000 -9999.000 -9999.000 -9999.000 -9999.000 0.187 0.449 0.871 1.303 1.771 2.141 2.163 2.116 1.814 1.458 0.875 0.452 0.697 0.838 0.551 0.574 1.952 3.323 4.639 5.270 2.672 0.750 2.199 3.322 2.738 2.304 2.705 3.097 3.431 3.668 3.328 2.927 2.149 1.380 0.686 0.120 0.437 0.694 0.493 0.290 0.067 0.000 1.149 2.152 1.792 1.391 0.663 0.024 0.330 0.615 0.645 0.646 0.315 0.052 0.683 1.283 1.430 1.561 1.449 1.308 0.658 0.045 0.225 0.411 0.702 0.987 1.076 1.163 1.205 1.242 1.096 0.953 1.008 1.065 1.184 1.303 1.468 1.634 1.449 1.264 0.978 0.690 0.696 0.706 0.834 0.964 1.181 1.396 1.948 2.515 2.673 2.819 2.549 2.259 1.857 1.446 1.370 1.316 0.971 0.604 0.633 0.697 0.672 0.641 0.533 0.413 1.046 1.750 2.725 3.726 4.801 5.879 5.718 5.416 4.865 4.298 4.274 4.313 3.669 2.936 3.734 4.739 4.939 5.024 5.081 5.140 4.886 4.574 3.891 3.148 3.039 3.047 3.218 3.421 4.030 4.712 3.833 2.628 2.532 2.669 2.641 2.578 2.819 3.129 3.013 2.805 2.664 2.533 3.223 4.136 4.365 4.393 4.151 3.843 4.114 4.546 4.187 3.587 3.182 2.843 2.154 1.354 0.879 0.513 0.372 0.310 0.699 1.244 1.307 1.192 1.086 0.986 0.910 0.845 1.010 1.264 2.474 4.085 4.969 5.543 5.659 5.573 4.670 3.399 2.961 2.902 2.934 3.010 3.033 3.035 2.877 2.632 2.522 2.480 2.633 2.891 2.742 2.371 2.207 2.157 2.095 2.028 1.920 1.784 1.700 1.652 1.743 1.923 2.142 2.384 2.555 2.680 2.694 2.627 2.520 2.390 2.604 3.067 3.344 3.476 3.440 3.285 4.245 6.042 5.895 4.240 4.041 5.011 5.545 5.707 5.271 4.336 4.190 4.727 4.890
-9999.000 -9999.000 -9999.000 -9999.000 -9999.000 -9999.000 -9999.000 -9999.000 -9999.000 -9999.000 -9999.000 -9999.000 -9999.000 -9999.000 -9999.000 -9999.000 -9999.000 -9999.000 -9999.000 -9999.000 -9999.000 -9999.000 -9999.000 -9999.000 -9999.000 -9999.000 -9999.000 -9999.000 -9999.000 -9999.000 -9999.000 -9999.000 -9999.000 -9999.000 -9999.000 -9999.000 -9999.000 -9999.000 -9999.000 -9999.000 -9999.000 -9999.000 -9999.000 -9999.000 -9999.000 -9999.000 -9999.000 -9999.000 -9999.000 -9999.000 -9999.000 -9999.000 -9999.000 -9999.000 -9999.000 -9999.000 -9999.000 -9999.000 -9999.000 -9999.000 -9999.000 -9999.000 -9999.000 -9999.000 -9999.000 -9999.000 -9999.000 -9999.000 -9999.000 -9999.000 -9999.000 -9999.000 -9999.000 -9999.000 -9999.000 -9999.000 -9999.000 -9999.000 -9999.000 -9999.000 -9999.000 -9999.000 -9999.000 -9999.000 -9999.000 -9999.000 -9999.000 -9999.000 -9999.000 -9999.000 -9999.000 -9999.000 -9999.000 -9999.000 -9999.000 -9999.000 -9999.000 -9999.000 -9999.000 -9999.000 -9999.000 -9999.000 -9999.000 -9999.000 -9999.000 -9999.000 -9999.000 -9999.000 -9999.000 -9999.000 -9999.000 -9999.000 -9999.000 -9999.000 -9999.000 -9999.000 -9999.000 -9999.000 -9999.000 -9999.000 -9999.000 -9999.000 -9999.000 -9999.000 -9999.000 -9999.000 -9999.000 -9999.000 -9999.000 -9999.000 -9999.000 -9999.000 -9999.000 0.187 0.631 1.055 1.419 1.685 1.621 1.444 0.871 0.408 0.319 0.288 0.503 0.691 0.763 1.001 1.933 2.829 3.552 3.895 2.528 1.525 2.276 2.876 2.701 2.591 2.835 3.068 3.235 3.326 2.997 2.620 1.981 1.347 0.765 0.268 0.315 0.333 0.129 0.000 0.000 0.000 0.337 0.985 0.913 0.799 0.373 0.000 0.133 0.263 0.320 0.356 0.184 0.063 0.524 0.966 1.128 1.270 1.152 1.017 0.612 0.233 0.341 0.455 0.669 0.878 0.984 1.088 1.151 1.209 1.113 1.021 1.050 1.081 1.163 1.246 1.349 1.449 1.290 1.129 0.920 0.711 0.663 0.618 0.731 0.846 1.072 1.299 1.690 2.088 2.209 2.323 2.170 2.007 1.713 1.412 1.307 1.212 0.961 0.701 0.648 0.609 0.592 0.576 0.597 0.619 1.054 1.527 2.231 2.963 4.530 6.164 5.977 5.609 5.387 5.165 4.735 4.298 3.686 3.046 4.195 5.577 5.534 5.296 4.906 4.502 4.620 4.806 4.006 3.048 2.798 2.674 2.911 3.207 3.905 4.685 3.770 2.514 2.543 2.842 2.883 2.862 3.302 3.843 3.331 2.575 2.486 2.558 3.150 3.880 4.637 5.387 5.015 4.340 4.477 4.868 4.536 3.985 3.606 3.268 2.319 1.191 0.667 0.333 0.219 0.173 0.784 1.619 1.738 1.605 1.390 1.150 0.982 0.839 1.160 1.657 3.021 4.745 5.553 5.972 5.798 5.383 4.022 2.222 1.964 2.416 2.754 3.039 2.955 2.699 2.533 2.407 2.420 2.502 2.733 3.041 2.825 2.332 2.225 2.326 2.262 2.108 2.051 2.047 1.927 1.741 1.674 1.680 1.827 2.059 2.176 2.220 2.393 2.643 2.578 2.307 2.321 2.534 2.952 3.505 3.477 3.037 4.638 7.733 7.480 4.709 3.934 4.706 5.491 6.275 6.020 4.924 4.848 5.622 5.672
-9999.000 -9999.000 -9999.000 -9999.000 -9999.000 -9999.000 -9999.000 -9999.000 -9999.000 -9999.000 -9999.000 -9999.000 -9999.000 -9999.000 -9999.000 -9999.000 -9999.000 -9999.000 -9999.000 -9999.000 -9999.000 -9999.000 -9999.000 -9999.000 -9999.000 -9999.000 -9999.000 -9999.000 -9999.000 -9999.000 -9999.000 -9999.000 -9999.000 -9999.000 -9999.000 -9999.000 -9999.000 -9999.000 -9999.000 -9999.000 -9999.000 -9999.000 -9999.000 -9999.000 -9999.000 -9999.000 -9999.000 -9999.000 -9999.000 -9999.000 -9999.000 -9999.000 -9999.000 -9999.000 -9999.000 -9999.000 -9999.000 -9999.000 -9999.000 -9999.000 -9999.000 -9999.000 -9999.000 -9999.000 -9999.000 -9999.000 -9999.000 -9999.000 -9999.000 -9999.000 -9999.000 -9999.000 -9999.000 -9999.000 -9999.000 -9999.000 -9999.000 -9999.000 -9999.000 -9999.000 -9999.000 -9999.000 -9999.000 -9999.000 -9999.000 -9999.000 -9999.000 -9999.000 -9999.000 -9999.000 -9999.000 -9999.000 -9999.000 -9999.000 -9999.000 -9999.000 -9999.000 -9999.000 -9999.000 -9999.000 -9999.000 -9999.000 -9999.000 -9999.000 -9999.000 -9999.000 -9999.000 -9999.000 -9999.000 -9999.000 -9999.000 -9999.000 -9999.000 -9999.000 -9999.000 -9999.000 -9999.000 -9999.000 -9999.000 -9999.000 -9999.000 -9999.000 -9999.000 -9999.000 -9999.000 -9999.000 -9999.000 -9999.000 -9999.000 -9999.000 -9999.000 -9999.000 -9999.000 0.109 0.461 0.788 1.032 1.190 1.068 0.851 0.310 0.000 0.003 0.124 0.345 0.573 0.828 1.162 1.803 2.394 2.775 2.971 2.391 1.980 2.312 2.596 2.653 2.721 2.850 2.967 3.017 3.007 2.688 2.339 1.826 1.317 0.837 0.403 0.249 0.088 0.000 0.000 0.000 0.000 0.000 0.061 0.172 0.249 0.074 0.000 0.000 0.000 0.038 0.103 0.069 0.067 0.380 0.681 0.848 0.993 0.881 0.763 0.579 0.409 0.450 0.498 0.638 0.777 0.896 1.014 1.096 1.172 1.127 1.084 1.088 1.094 1.141 1.188 1.228 1.265 1.130 0.995 0.864 0.732 0.630 0.530 0.629 0.729 0.952 1.175 1.403 1.633 1.728 1.821 1.787 1.746 1.553 1.353 1.237 1.124 0.944 0.760 0.671 0.588 0.602 0.620 0.724 0.831 1.030 1.241 1.575 1.925 4.074 6.361 6.058 5.526 6.094 6.754 5.612 4.297 3.859 3.513 4.852 6.391 6.127 5.637 4.774 3.869 4.516 5.373 4.581 3.542 3.116 2.792 3.242 3.817 4.323 4.822 4.044 3.026 2.880 2.908 3.134 3.396 4.050 4.784 4.147 3.213 3.095 3.163 3.489 3.882 5.174 6.673 6.466 5.822 4.858 3.832 3.316 2.934 3.143 3.511 2.364 0.780 0.347 0.262 0.511 0.860 1.748 2.809 2.904 2.675 2.108 1.429 1.095 0.885 1.362 2.089 3.090 4.206 5.205 6.146 5.699 4.699 4.008 3.424 3.180 3.099 3.146 3.250 3.108 2.853 2.689 2.568 2.572 2.638 2.769 2.934 2.812 2.538 2.575 2.775 2.642 2.333 2.350 2.541 2.290 1.793 1.683 1.794 1.937 2.102 2.158 2.146 2.336 2.652 2.668 2.487 2.450 2.511 2.924 3.575 4.354 5.190 6.794 8.996 8.657 6.418 5.146 4.643 4.940 5.837 5.860 5.179 5.265 5.983 5.959
-9999.000 -9999.000 -9999.000 -9999.000 -9999.000 -9999.000 -9999.000 -9999.000 -9999.000 -9999.000 -9999.000 -9999.000 -9999.000 -9999.000 -9999.000 -9999.000 -9999.000 -9999.000 -9999.000 -9999.000 -9999.000 -9999.000 -9999.000 -9999.000 -9999.000 -9999.000 -9999.000 -9999.000 -9999.000 -9999.000 -9999.000 -9999.000 -9999.000 -9999.000 -9999.000 -9999.000 -9999.000 -9999.000 -9999.000 -9999.000 -9999.000 -9999.000 -9999.000 -9999.000 -9999.000 -9999.000 -9999.000 -9999.000 -9999.000 -9999.000 -9999.000 -9999.000 -9999.000 -9999.000 -9999.000 -9999.000 -9999.000 -9999.000 -9999.000 -9999.000 -9999.000 -9999.000 -9999.000 -9999.000 -9999.000 -9999.000 -9999.000 -9999.000 -9999.000 -9999.000 -9999.000 -9999.000 -9999.000 -9999.000 -9999.000 -9999.000 -9999.000 -9999.000 -9999.000 -9999.000 -9999.000 -9999.000 -9999.000 -9999.000 -9999.000 -9999.000 -9999.000 -9999.000 -9999.000 -9999.000 -9999.000 -9999.000 -9999.000 -9999.000 -9999.000 -9999.000 -9999.000 -9999.000 -9999.000 -9999.000 -9999.000 -9999.000 -9999.000 -9999.000 -9999.000 -9999.000 -9999.000 -9999.000 -9999.000 -9999.000 -9999.000 -9999.000 -9999.000 -9999.000 -9999.000 -9999.000 -9999.000 -9999.000 -9999.000 -9999.000 -9999.000 -9999.000 -9999.000 -9999.000 -9999.000 -9999.000 -9999.000 -9999.000 -9999.000 -9999.000 -9999.000 -9999.000 -9999.000 0.107 0.320 0.510 0.626 0.674 0.509 0.305 0.000 0.000 0.000 0.000 0.211 0.474 0.784 1.126 1.590 2.012 2.264 2.430 2.252 2.139 2.315 2.481 2.586 2.682 2.737 2.782 2.775 2.717 2.411 2.090 1.689 1.288 0.894 0.521 0.280 0.044 0.000 0.000 0.000 0.000 0.000 0.000 0.000 0.000 0.000 0.000 0.000 0.000 0.000 0.000 0.000 0.055 0.297 0.531 0.665 0.784 0.741 0.693 0.604 0.521 0.526 0.539 0.640 0.743 0.847 0.949 1.014 1.074 1.060 1.046 1.034 1.025 1.065 1.103 1.088 1.071 0.974 0.875 0.766 0.657 0.574 0.492 0.541 0.591 0.734 0.878 1.041 1.204 1.329 1.452 1.464 1.474 1.365 1.252 1.172 1.092 0.953 0.812 0.750 0.691 0.727 0.766 0.885 1.007 1.170 1.333 1.641 1.955 3.869 5.911 5.548 4.993 5.972 7.081 5.833 4.360 4.039 3.834 4.965 6.251 6.206 5.993 4.962 3.829 4.653 5.736 4.916 3.832 3.252 2.750 3.187 3.776 4.239 4.678 4.147 3.443 3.153 2.941 3.197 3.545 4.330 5.201 4.705 3.916 3.759 3.744 3.843 3.969 5.402 7.155 7.047 6.483 4.893 3.031 2.367 2.025 2.582 3.391 2.199 0.429 0.128 0.254 0.803 1.479 2.566 3.785 3.896 3.642 2.749 1.650 1.198 0.960 1.584 2.517 3.160 3.697 4.863 6.286 5.575 4.010 4.018 4.649 4.386 3.771 3.534 3.457 3.264 3.017 2.860 2.744 2.737 2.780 2.796 2.803 2.794 2.774 2.964 3.261 3.049 2.578 2.679 3.080 2.672 1.831 1.713 1.994 2.152 2.241 2.239 2.184 2.353 2.657 2.772 2.766 2.734 2.689 3.044 3.660 5.642 8.510 9.779 9.999 9.646 8.850 7.098 4.698 4.068 4.733 5.094 5.210 5.497 5.929 5.860
-9999.000 -9999.000 -9999.000 -9999.000 -9999.000 -9999.000 -9999.000 -9999.000 -9999.000 -9999.000 -9999.000 -9999.000 -9999.000 -9999.000 -9999.000 -9999.000 -9999.000 -9999.000 -9999.000 -9999.000 -9999.000 -9999.000 -9999.000 -9999.000 -9999.000 -9999.000 -9999.000 -9999.000 -9999.000 -9999.000 -9999.000 -9999.000 -9999.000 -9999.000 -9999.000 -9999.000 -9999.000 -9999.000 -9999.000 -9999.000 -9999.000 -9999.000 -9999.000 -9999.000 -9999.000 -9999.000 -9999.000 -9999.000 -9999.000 -9999.000 -9999.000 -9999.000 -9999.000 -9999.000 -9999.000 -9999.000 -9999.000 -9999.000 -9999.000 -9999.000 -9999.000 -9999.000 -9999.000 -9999.000 -9999.000 -9999.000 -9999.000 -9999.000 -9999.000 -9999.000 -9999.000 -9999.000 -9999.000 -9999.000 -9999.000 -9999.000 -9999.000 -9999.000 -9999.000 -9999.000 -9999.000 -9999.000 -9999.000 -9999.000 -9999.000 -9999.000 -9999.000 -9999.000 -9999.000 -9999.000 -9999.000 -9999.000 -9999.000 -9999.000 -9999.000 -9999.000 -9999.000 -9999.000 -9999.000 -9999.000 -9999.000 -9999.000 -9999.000 -9999.000 -9999.000 -9999.000 -9999.000 -9999.000 -9999.000 -9999.000 -9999.000 -9999.000 -9999.000 -9999.000 -9999.000 -9999.000 -9999.000 -9999.000 -9999.000 -9999.000 -9999.000 -9999.000 -9999.000 -9999.000 -9999.000 -9999.000 -9999.000 -9999.000 -9999.000 -9999.000 -9999.000 -9999.000 -9999.000 0.071 0.188 0.287 0.339 0.331 0.149 -9999.000 -9999.000 0.000 0.000 0.000 0.149 0.443 0.771 1.100 1.428 1.723 1.893 2.041 2.107 2.180 2.282 2.387 2.503 2.599 2.605 2.599 2.538 2.436 2.146 1.853 1.548 1.241 0.933 0.626 0.329 0.045 0.000 0.000 0.000 0.000 0.000 0.000 0.000 0.000 0.000 0.000 0.000 0.000 0.000 0.000 0.000 0.040 0.219 0.390 0.493 0.589 0.608 0.626 0.627 0.626 0.603 0.585 0.648 0.714 0.801 0.886 0.933 0.977 0.993 1.007 0.980 0.957 0.989 1.016 0.946 0.877 0.818 0.757 0.667 0.577 0.517 0.457 0.453 0.450 0.504 0.559 0.669 0.779 0.943 1.106 1.153 1.199 1.172 1.143 1.109 1.075 0.970 0.863 0.848 0.833 0.890 0.949 1.058 1.169 1.377 1.588 2.029 2.481 3.769 5.122 4.729 4.216 5.374 6.655 5.662 4.476 4.221 4.050 4.673 5.384 5.897 6.376 5.424 4.314 4.995 5.894 5.017 3.915 3.197 2.532 2.683 2.955 3.547 4.184 4.025 3.733 3.338 2.930 2.956 3.062 3.821 4.698 4.808 4.758 4.531 4.274 4.241 4.256 4.863 5.615 5.382 4.919 4.025 3.014 2.257 1.571 1.629 1.885 1.253 0.370 0.330 0.523 1.059 1.693 2.516 3.399 3.719 3.859 2.827 1.430 1.217 1.384 2.024 2.828 3.467 4.048 4.418 4.731 4.568 4.205 4.182 4.303 3.999 3.522 3.536 3.744 3.473 3.006 2.838 2.796 2.761 2.729 2.748 2.788 2.691 2.533 2.657 2.916 2.884 2.701 2.723 2.856 2.631 2.207 2.149 2.296 2.353 2.359 2.394 2.442 2.585 2.787 2.939 3.058 3.399 3.864 4.376 4.926 6.956 9.953 10.888 10.451 10.117 9.857 8.293 5.804 4.834 4.967 5.212 5.536 5.868 6.203 6.138
-9999.000 -9999.000 -9999.000 -9999.000 -9999.000 -9999.000 -9999.000 -9999.000 -9999.000 -9999.000 -9999.000 -9999.000 -9999.000 -9999.000 -9999.000 -9999.000 -9999.000 -9999.000 -9999.000 -9999.000 -9999.000 -9999.000 -9999.000 -9999.000 -9999.000 -9999.000 -9999.000 -9999.000 -9999.000 -9999.000 -9999.000 -9999.000 -9999.000 -9999.000 -9999.000 -9999.000 -9999.000 -9999.000 -9999.000 -9999.000 -9999.000 -9999.000 -9999.000 -9999.000 -9999.000 -9999.000 -9999.000 -9999.000 -9999.000 -9999.000 -9999.000 -9999.000 -9999.000 -9999.000 -9999.000 -9999.000 -9999.000 -9999.000 -9999.000 -9999.000 -9999.000 -9999.000 -9999.000 -9999.000 -9999.000 -9999.000 -9999.000 -9999.000 -9999.000 -9999.000 -9999.000 -9999.000 -9999.000 -9999.000 -9999.000 -9999.000 -9999.000 -9999.000 -9999.000 -9999.000 -9999.000 -9999.000 -9999.000 -9999.000 -9999.000 -9999.000 -9999.000 -9999.000 -9999.000 -9999.000 -9999.000 -9999.000 -9999.000 -9999.000 -9999.000 -9999.000 -9999.000 -9999.000 -9999.000 -9999.000 -9999.000 -9999.000 -9999.000 -9999.000 -9999.000 -9999.000 -9999.000 -9999.000 -9999.000 -9999.000 -9999.000 -9999.000 -9999.000 -9999.000 -9999.000 -9999.000 -9999.000 -9999.000 -9999.000 -9999.000 -9999.000 -9999.000 -9999.000 -9999.000 -9999.000 -9999.000 -9999.000 -9999.000 -9999.000 -9999.000 -9999.000 -9999.000 -9999.000 0.017 0.059 0.098 0.122 0.094 -9999.000 -9999.000 -9999.000 0.000 0.000 0.000 0.149 0.470 0.787 1.084 1.315 1.527 1.666 1.807 1.952 2.089 2.209 2.319 2.397 2.458 2.450 2.421 2.311 2.170 1.899 1.634 1.395 1.159 0.938 0.705 0.419 0.145 0.000 0.000 0.000 0.000 0.000 0.000 0.000 0.000 0.000 0.000 0.000 0.000 0.000 0.000 0.000 0.019 0.167 0.309 0.393 0.473 0.518 0.562 0.615 0.665 0.697 0.728 0.759 0.792 0.845 0.896 0.920 0.943 0.959 0.971 0.927 0.887 0.906 0.921 0.861 0.799 0.720 0.641 0.556 0.472 0.401 0.330 0.262 0.197 0.216 0.237 0.368 0.498 0.695 0.889 0.958 1.027 1.050 1.073 1.078 1.082 0.996 0.910 0.916 0.924 0.982 1.043 1.175 1.309 1.548 1.792 2.247 2.713 3.702 4.720 4.354 3.905 4.837 5.868 5.501 5.016 4.679 4.360 4.534 4.758 5.398 6.081 5.251 4.265 4.902 5.712 5.014 4.132 3.373 2.628 2.664 2.799 3.162 3.572 3.756 3.897 3.305 2.608 2.461 2.402 3.118 3.968 4.479 4.931 4.748 4.438 4.325 4.252 4.194 4.141 3.847 3.498 3.188 2.885 2.084 1.163 0.800 0.573 0.446 0.340 0.525 0.785 1.307 1.900 2.469 3.034 3.560 4.073 2.896 1.215 1.250 1.813 2.453 3.126 3.771 4.401 3.952 3.155 3.585 4.424 4.337 3.928 3.578 3.246 3.527 4.041 3.681 2.977 2.800 2.838 2.768 2.654 2.691 2.790 2.569 2.208 2.221 2.407 2.606 2.804 2.691 2.434 2.490 2.689 2.702 2.627 2.549 2.470 2.579 2.786 2.900 2.967 3.134 3.357 4.259 5.550 6.339 6.832 8.254 10.264 10.869 10.571 10.231 9.868 8.983 7.728 6.856 6.268 6.055 6.103 6.369 6.789 6.780
-9999.000 -9999.000 -9999.000 -9999.000 -9999.000 -9999.000 -9999.000 -9999.000 -9999.000 -9999.000 -9999.000 -9999.000 -9999.000 -9999.000 -9999.000 -9999.000 -9999.000 -9999.000 -9999.000 -9999.000 -9999.000 -9999.000 -9999.000 -9999.000 -9999.000 -9999.000 -9999.000 -9999.000 -9999.000 -9999.000 -9999.000 -9999.000 -9999.000 -9999.000 -9999.000 -9999.000 -9999.000 -9999.000 -9999.000 -9999.000 -9999.000 -9999.000 -9999.000 -9999.000 -9999.000 -9999.000 -9999.000 -9999.000 -9999.000 -9999.000 -9999.000 -9999.000 -9999.000 -9999.000 -9999.000 -9999.000 -9999.000 -9999.000 -9999.000 -9999.000 -9999.000 -9999.000 -9999.000 -9999.000 -9999.000 -9999.000 -9999.000 -9999.000 -9999.000 -9999.000 -9999.000 -9999.000 -9999.000 -9999.000 -9999.000 -9999.000 -9999.000 -9999.000 -9999.000 -9999.000 -9999.000 -9999.000 -9999.000 -9999.000 -9999.000 -9999.000 -9999.000 -9999.000 -9999.000 -9999.000 -9999.000 -9999.000 -9999.000 -9999.000 -9999.000 -9999.000 -9999.000 -9999.000 -9999.000 -9999.000 -9999.000 -9999.000 -9999.000 -9999.000 -9999.000 -9999.000 -9999.000 -9999.000 -9999.000 -9999.000 -9999.000 -9999.000 -9999.000 -9999.000 -9999.000 -9999.000 -9999.000 -9999.000 -9999.000 -9999.000 -9999.000 -9999.000 -9999.000 -9999.000 -9999.000 -9999.000 -9999.000 -9999.000 -9999.000 -9999.000 -9999.000 -9999.000 -9999.000 -9999.000 -9999.000 -9999.000 -9999.000 -9999.000 -9999.000 -9999.000 -9999.000 0.000 0.000 0.000 0.175 0.484 0.772 1.035 1.217 1.385 1.506 1.640 1.820 1.986 2.109 2.216 2.269 2.305 2.284 2.238 2.098 1.939 1.704 1.478 1.292 1.109 0.944 0.760 0.496 0.240 0.022 0.000 0.000 0.000 0.000 0.000 0.000 0.000 0.000 0.000 0.000 0.000 0.000 0.000 0.000 0.000 0.116 0.229 0.296 0.363 0.431 0.503 0.604 0.704 0.789 0.866 0.867 0.869 0.888 0.906 0.907 0.909 0.925 0.935 0.874 0.818 0.824 0.826 0.779 0.728 0.627 0.526 0.445 0.364 0.278 0.190 0.055 0.000 0.000 0.000 0.082 0.249 0.478 0.703 0.793 0.883 0.950 1.016 1.057 1.097 1.026 0.955 0.973 0.992 1.044 1.097 1.267 1.439 1.703 1.969 2.368 2.773 3.658 4.564 4.267 3.911 4.333 4.807 5.361 5.901 5.356 4.744 4.530 4.354 4.704 5.101 4.426 3.650 4.327 5.144 4.893 4.523 3.852 3.147 3.329 3.615 3.223 2.761 3.243 3.843 2.885 1.715 1.485 1.394 2.009 2.737 3.134 3.479 3.594 3.663 3.556 3.418 3.179 2.924 2.745 2.578 2.420 2.261 1.674 0.990 0.613 0.307 0.315 0.394 0.672 0.999 1.501 2.049 2.509 2.947 3.525 4.139 2.927 1.199 1.411 2.190 2.503 2.682 3.249 3.935 4.042 3.949 4.296 4.801 4.478 3.868 3.580 3.404 3.518 3.746 3.428 2.896 2.793 2.858 2.764 2.605 2.638 2.751 2.584 2.295 2.322 2.489 2.581 2.642 2.544 2.366 2.440 2.640 2.686 2.653 2.673 2.717 2.970 3.331 3.524 3.626 3.827 4.083 5.046 6.415 7.269 7.820 8.969 10.477 10.794 10.388 9.923 9.420 8.902 8.371 7.708 6.956 6.887 7.270 7.523 7.702 7.484
-9999.000 -9999.000 -9999.000 -9999.000 -9999.000 -9999.000 -9999.000 -9999.000 -9999.000 -9999.000 -9999.000 -9999.000 -9999.000 -9999.000 -9999.000 -9999.000 -9999.000 -9999.000 -9999.000 -9999.000 -9999.000 -9999.000 -9999.000 -9999.000 -9999.000 -9999.000 -9999.000 -9999.000 -9999.000 -9999.000 -9999.000 -9999.000 -9999.000 -9999.000 -9999.000 -9999.000 -9999.000 -9999.000 -9999.000 -9999.000 -9999.000 -9999.000 -9999.000 -9999.000 -9999.000 -9999.000 -9999.000 -9999.000 -9999.000 -9999.000 -9999.000 -9999.000 -9999.000 -9999.000 -9999.000 -9999.000 -9999.000 -9999.000 -9999.000 -9999.000 -9999.000 -9999.000 -9999.000 -9999.000 -9999.000 -9999.000 -9999.000 -9999.000 -9999.000 -9999.000 -9999.000 -9999.000 -9999.000 -9999.000 -9999.000 -9999.000 -9999.000 -9999.000 -9999.000 -9999.000 -9999.000 -9999.000 -9999.000 -9999.000 -9999.000 -9999.000 -9999.000 -9999.000 -9999.000 -9999.000 -9999.000 -9999.000 -9999.000 -9999.000 -9999.000 -9999.000 -9999.000 -9999.000 -9999.000 -9999.000 -9999.000 -9999.000 -9999.000 -9999.000 -9999.000 -9999.000 -9999.000 -9999.000 -9999.000 -9999.000 -9999.000 -9999.000 -9999.000 -9999.000 -9999.000 -9999.000 -9999.000 -9999.000 -9999.000 -9999.000 -9999.000 -9999.000 -9999.000 -9999.000 -9999.000 -9999.000 -9999.000 -9999.000 -9999.000 -9999.000 -9999.000 -9999.000 -9999.000 -9999.000 -9999.000 -9999.000 -9999.000 -9999.000 -9999.000 -9999.000 -9999.000 0.000 0.000 0.000 0.227 0.486 0.724 0.950 1.139 1.309 1.428 1.557 1.718 1.865 1.971 2.062 2.105 2.131 2.101 2.048 1.916 1.777 1.617 1.455 1.295 1.130 0.946 0.755 0.537 0.318 0.102 0.000 0.000 0.000 0.000 0.000 0.000 0.000 0.000 0.000 0.000 0.000 0.000 0.000 0.000 0.000 0.066 0.169 0.238 0.309 0.396 0.485 0.595 0.698 0.759 0.818 0.867 0.911 0.932 0.949 0.928 0.911 0.921 0.922 0.830 0.745 0.734 0.721 0.680 0.636 0.540 0.446 0.382 0.316 0.196 0.074 0.000 0.000 0.000 0.000 0.000 0.000 0.278 0.553 0.690 0.825 0.895 0.965 1.034 1.101 1.063 1.023 1.041 1.058 1.114 1.170 1.370 1.572 1.850 2.130 2.479 2.830 3.535 4.255 4.079 3.867 4.051 4.252 5.119 6.024 5.487 4.863 4.465 4.081 4.186 4.329 3.851 3.320 3.921 4.623 4.651 4.616 4.080 3.490 3.696 3.991 3.179 2.235 2.800 3.557 2.438 1.068 0.784 0.650 1.128 1.698 1.990 2.239 2.558 2.890 2.778 2.590 2.227 1.829 1.752 1.734 1.702 1.666 1.287 0.835 0.457 0.093 0.222 0.462 0.820 1.206 1.690 2.197 2.554 2.874 3.486 4.187 2.951 1.182 1.576 2.571 2.543 2.229 2.727 3.466 4.155 4.817 5.060 5.178 4.614 3.826 3.617 3.603 3.503 3.380 3.123 2.812 2.789 2.876 2.757 2.559 2.586 2.703 2.633 2.484 2.560 2.732 2.622 2.395 2.366 2.421 2.416 2.389 2.454 2.560 2.770 3.028 3.459 3.974 4.305 4.540 4.792 5.052 5.777 6.760 7.537 8.195 9.285 10.625 10.672 9.964 9.269 8.582 8.137 7.836 7.469 7.057 7.727 9.088 9.382 8.981 8.256
-9999.000 -9999.000 -9999.000 -9999.000 -9999.000 -9999.000 -9999.000 -9999.000 -9999.000 -9999.000 -9999.000 -9999.000 -9999.000 -9999.000 -9999.000 -9999.000 -9999.000 -9999.000 -9999.000 -9999.000 -9999.000 -9999.000 -9999.000 -9999.000 -9999.000 -9999.000 -9999.000 -9999.000 -9999.000 -9999.000 -9999.000 -9999.000 -9999.000 -9999.000 -9999.000 -9999.000 -9999.000 -9999.000 -9999.000 -9999.000 -9999.000 -9999.000 -9999.000 -9999.000 -9999.000 -9999.000 -9999.000 -9999.000 -9999.000 -9999.000 -9999.000 -9999.000 -9999.000 -9999.000 -9999.000 -9999.000 -9999.000 -9999.000 -9999.000 -9999.000 -9999.000 -9999.000 -9999.000 -9999.000 -9999.000 -9999.000 -9999.000 -9999.000 -9999.000 -9999.000 -9999.000 -9999.000 -9999.000 -9999.000 -9999.000 -9999.000 -9999.000 -9999.000 -9999.000 -9999.000 -9999.000 -9999.000 -9999.000 -9999.000 -9999.000 -9999.000 -9999.000 -9999.000 -9999.000 -9999.000 -9999.000 -9999.000 -9999.000 -9999.000 -9999.000 -9999.000 -9999.000 -9999.000 -9999.000 -9999.000 -9999.000 -9999.000 -9999.000 -9999.000 -9999.000 -9999.000 -9999.000 -9999.000 -9999.000 -9999.000 -9999.000 -9999.000 -9999.000 -9999.000 -9999.000 -9999.000 -9999.000 -9999.000 -9999.000 -9999.000 -9999.000 -9999.000 -9999.000 -9999.000 -9999.000 -9999.000 -9999.000 -9999.000 -9999.000 -9999.000 -9999.000 -9999.000 -9999.000 -9999.000 -9999.000 -9999.000 -9999.000 -9999.000 -9999.000 -9999.000 -9999.000 0.000 0.000 0.038 0.257 0.474 0.686 0.889 1.066 1.226 1.337 1.456 1.598 1.730 1.831 1.917 1.957 1.977 1.937 1.878 1.757 1.638 1.532 1.419 1.285 1.139 0.944 0.753 0.576 0.391 0.179 0.000 0.000 0.000 0.000 0.000 0.000 0.000 0.000 0.000 0.000 0.000 0.000 0.000 0.000 0.000 0.016 0.110 0.181 0.256 0.362 0.468 0.585 0.692 0.728 0.771 0.867 0.954 0.977 0.992 0.951 0.914 0.919 0.911 0.786 0.671 0.642 0.614 0.579 0.540 0.454 0.370 0.328 0.278 0.122 0.000 0.000 0.000 0.000 0.000 0.000 0.000 0.085 0.415 0.610 0.799 0.858 0.917 1.010 1.102 1.103 1.103 1.113 1.123 1.189 1.255 1.481 1.707 1.994 2.281 2.582 2.885 3.351 3.826 3.812 3.782 3.964 4.154 4.763 5.394 5.079 4.715 4.339 3.963 3.875 3.808 3.591 3.359 3.737 4.166 4.221 4.245 3.914 3.547 3.542 3.576 2.969 2.291 2.475 2.762 1.955 1.010 0.749 0.574 0.851 1.193 1.432 1.656 1.878 2.102 1.974 1.791 1.539 1.273 1.241 1.250 1.235 1.217 1.016 0.776 0.541 0.304 0.428 0.627 0.957 1.314 1.819 2.356 2.777 3.170 3.252 3.269 2.373 1.233 2.011 3.291 3.126 2.571 3.052 3.826 4.394 4.907 4.877 4.686 3.975 3.101 3.023 3.200 3.283 3.332 3.189 2.981 2.858 2.768 2.647 2.512 2.520 2.583 2.581 2.552 2.582 2.638 2.557 2.415 2.419 2.488 2.454 2.374 2.670 3.128 3.450 3.712 4.215 4.832 5.032 5.034 5.306 5.707 6.439 7.343 8.052 8.659 9.355 10.113 9.892 9.110 8.371 7.655 7.438 7.510 7.536 7.531 8.484 10.052 10.144 9.289 8.275
-9999.000 -9999.000 -9999.000 -9999.000 -9999.000 -9999.000 -9999.000 -9999.000 -9999.000 -9999.000 -9999.000 -9999.000 -9999.000 -9999.000 -9999.000 -9999.000 -9999.000 -9999.000 -9999.000 -9999.000 -9999.000 -9999.000 -9999.000 -9999.000 -9999.000 -9999.000 -9999.000 -9999.000 -9999.000 -9999.000 -9999.000 -9999.000 -9999.000 -9999.000 -9999.000 -9999.000 -9999.000 -9999.000 -9999.000 -9999.000 -9999.000 -9999.000 -9999.000 -9999.000 -9999.000 -9999.000 -9999.000 -9999.000 -9999.000 -9999.000 -9999.000 -9999.000 -9999.000 -9999.000 -9999.000 -9999.000 -9999.000 -9999.000 -9999.000 -9999.000 -9999.000 -9999.000 -9999.000 -9999.000 -9999.000 -9999.000 -9999.000 -9999.000 -9999.000 -9999.000 -9999.000 -9999.000 -9999.000 -9999.000 -9999.000 -9999.000 -9999.000 -9999.000 -9999.000 -9999.000 -9999.000 -9999.000 -9999.000 -9999.000 -9999.000 -9999.000 -9999.000 -9999.000 -9999.000 -9999.000 -9999.000 -9999.000 -9999.000 -9999.000 -9999.000 -9999.000 -9999.000 -9999.000 -9999.000 -9999.000 -9999.000 -9999.000 -9999.000 -9999.000 -9999.000 -9999.000 -9999.000 -9999.000 -9999.000 -9999.000 -9999.000 -9999.000 -9999.000 -9999.000 -9999.000 -9999.000 -9999.000 -9999.000 -9999.000 -9999.000 -9999.000 -9999.000 -9999.000 -9999.000 -9999.000 -9999.000 -9999.000 -9999.000 -9999.000 -9999.000 -9999.000 -9999.000 -9999.000 -9999.000 -9999.000 -9999.000 -9999.000 -9999.000 -9999.000 -9999.000 -9999.000 0.000 0.000 0.082 0.258 0.446 0.662 0.858 1.001 1.131 1.225 1.327 1.450 1.572 1.690 1.791 1.840 1.865 1.817 1.756 1.653 1.551 1.450 1.347 1.236 1.110 0.930 0.757 0.606 0.445 0.244 0.044 0.000 0.000 0.000 0.000 0.000 0.000 0.000 0.000 0.000 0.000 0.000 0.000 0.000 0.000 0.000 0.066 0.149 0.236 0.351 0.468 0.598 0.714 0.741 0.775 0.848 0.919 0.962 0.995 0.954 0.916 0.905 0.882 0.762 0.650 0.611 0.570 0.515 0.459 0.399 0.338 0.272 0.200 0.057 0.000 0.000 0.000 0.000 0.000 0.000 0.000 0.043 0.355 0.559 0.757 0.821 0.886 0.988 1.088 1.130 1.171 1.183 1.196 1.265 1.336 1.561 1.786 2.045 2.306 2.563 2.821 3.137 3.454 3.566 3.672 3.830 3.992 4.392 4.802 4.648 4.471 4.146 3.814 3.618 3.430 3.370 3.317 3.521 3.742 3.815 3.877 3.698 3.501 3.343 3.189 2.756 2.295 2.171 2.083 1.556 0.978 0.735 0.529 0.628 0.765 0.943 1.128 1.248 1.360 1.215 1.034 0.886 0.741 0.757 0.797 0.799 0.795 0.763 0.724 0.625 0.514 0.630 0.791 1.089 1.417 1.943 2.512 3.002 3.469 3.004 2.338 1.807 1.296 2.454 4.023 3.721 2.940 3.419 4.235 4.638 4.931 4.602 4.100 3.246 2.287 2.344 2.709 3.035 3.345 3.328 3.203 2.937 2.628 2.514 2.467 2.448 2.440 2.500 2.584 2.528 2.422 2.458 2.545 2.564 2.557 2.521 2.473 3.111 4.039 4.436 4.599 5.127 5.820 5.717 5.246 5.518 6.143 7.057 8.114 8.757 9.192 9.204 9.007 8.514 7.852 7.234 6.640 6.815 7.421 7.958 8.452 9.110 9.884 9.443 8.252 7.214
-9999.000 -9999.000 -9999.000 -9999.000 -9999.000 -9999.000 -9999.000 -9999.000 -9999.000 -9999.000 -9999.000 -9999.000 -9999.000 -9999.000 -9999.000 -9999.000 -9999.000 -9999.000 -9999.000 -9999.000 -9999.000 -9999.000 -9999.000 -9999.000 -9999.000 -9999.000 -9999.000 -9999.000 -9999.000 -9999.000 -9999.000 -9999.000 -9999.000 -9999.000 -9999.000 -9999.000 -9999.000 -9999.000 -9999.000 -9999.000 -9999.000 -9999.000 -9999.000 -9999.000 -9999.000 -9999.000 -9999.000 -9999.000 -9999.000 -9999.000 -9999.000 -9999.000 -9999.000 -9999.000 -9999.000 -9999.000 -9999.000 -9999.000 -9999.000 -9999.000 -9999.000 -9999.000 -9999.000 -9999.000 -9999.000 -9999.000 -9999.000 -9999.000 -9999.000 -9999.000 -9999.000 -9999.000 -9999.000 -9999.000 -9999.000 -9999.000 -9999.000 -9999.000 -9999.000 -9999.000 -9999.000 -9999.000 -9999.000 -9999.000 -9999.000 -9999.000 -9999.000 -9999.000 -9999.000 -9999.000 -9999.000 -9999.000 -9999.000 -9999.000 -9999.000 -9999.000 -9999.000 -9999.000 -9999.000 -9999.000 -9999.000 -9999.000 -9999.000 -9999.000 -9999.000 -9999.000 -9999.000 -9999.000 -9999.000 -9999.000 -9999.000 -9999.000 -9999.000 -9999.000 -9999.000 -9999.000 -9999.000 -9999.000 -9999.000 -9999.000 -9999.000 -9999.000 -9999.000 -9999.000 -9999.000 -9999.000 -9999.000 -9999.000 -9999.000 -9999.000 -9999.000 -9999.000 -9999.000 -9999.000 -9999.000 -9999.000 -9999.000 -9999.000 -9999.000 -9999.000 -9999.000 0.000 0.000 0.127 0.274 0.437 0.637 0.814 0.931 1.041 1.130 1.225 1.334 1.447 1.574 1.680 1.731 1.755 1.701 1.640 1.559 1.475 1.382 1.289 1.196 1.086 0.919 0.761 0.631 0.490 0.307 0.122 0.000 0.000 0.000 0.000 0.000 0.000 0.000 0.000 0.000 0.000 0.000 0.000 0.000 0.000 0.000 0.023 0.117 0.215 0.340 0.467 0.610 0.736 0.756 0.780 0.828 0.880 0.944 0.995 0.956 0.918 0.889 0.852 0.741 0.637 0.589 0.537 0.456 0.381 0.352 0.316 0.215 0.114 0.000 0.000 0.000 0.000 0.000 0.000 0.000 0.000 0.060 0.326 0.520 0.709 0.786 0.864 0.966 1.067 1.151 1.233 1.252 1.273 1.342 1.414 1.618 1.822 2.024 2.228 2.442 2.656 2.896 3.138 3.337 3.534 3.646 3.758 4.005 4.257 4.184 4.100 3.866 3.624 3.445 3.268 3.200 3.138 3.255 3.384 3.449 3.511 3.381 3.236 3.056 2.873 2.525 2.161 1.940 1.734 1.378 1.003 0.789 0.592 0.598 0.629 0.725 0.830 0.838 0.837 0.678 0.498 0.419 0.352 0.451 0.573 0.602 0.617 0.657 0.700 0.692 0.674 0.786 0.922 1.138 1.371 1.782 2.230 2.735 3.252 2.579 1.652 1.851 2.286 2.826 3.411 3.702 3.901 4.071 4.250 4.209 4.117 3.921 3.689 2.975 2.124 2.104 2.332 2.713 3.138 3.137 3.005 2.827 2.632 2.613 2.653 2.596 2.508 2.518 2.564 2.475 2.334 2.501 2.780 2.828 2.785 2.865 2.990 3.962 5.280 5.273 4.721 5.177 6.065 6.075 5.681 5.948 6.528 7.686 9.110 9.712 9.919 9.582 8.966 8.044 6.979 6.588 6.531 7.170 8.192 8.876 9.384 9.648 9.772 8.882 7.391 6.350
-9999.000 -9999.000 -9999.000 -9999.000 -9999.000 -9999.000 -9999.000 -9999.000 -9999.000 -9999.000 -9999.000 -9999.000 -9999.000 -9999.000 -9999.000 -9999.000 -9999.000 -9999.000 -9999.000 -9999.000 -9999.000 -9999.000 -9999.000 -9999.000 -9999.000 -9999.000 -9999.000 -9999.000 -9999.000 -9999.000 -9999.000 -9999.000 -9999.000 -9999.000 -9999.000 -9999.000 -9999.000 -9999.000 -9999.000 -9999.000 -9999.000 -9999.000 -9999.000 -9999.000 -9999.000 -9999.000 -9999.000 -9999.000 -9999.000 -9999.000 -9999.000 -9999.000 -9999.000 -9999.000 -9999.000 -9999.000 -9999.000 -9999.000 -9999.000 -9999.000 -9999.000 -9999.000 -9999.000 -9999.000 -9999.000 -9999.000 -9999.000 -9999.000 -9999.000 -9999.000 -9999.000 -9999.000 -9999.000 -9999.000 -9999.000 -9999.000 -9999.000 -9999.000 -9999.000 -9999.000 -9999.000 -9999.000 -9999.000 -9999.000 -9999.000 -9999.000 -9999.000 -9999.000 -9999.000 -9999.000 -9999.000 -9999.000 -9999.000 -9999.000 -9999.000 -9999.000 -9999.000 -9999.000 -9999.000 -9999.000 -9999.000 -9999.000 -9999.000 -9999.000 -9999.000 -9999.000 -9999.000 -9999.000 -9999.000 -9999.000 -9999.000 -9999.000 -9999.000 -9999.000 -9999.000 -9999.000 -9999.000 -9999.000 -9999.000 -9999.000 -9999.000 -9999.000 -9999.000 -9999.000 -9999.000 -9999.000 -9999.000 -9999.000 -9999.000 -9999.000 -9999.000 -9999.000 -9999.000 -9999.000 -9999.000 -9999.000 -9999.000 -9999.000 -9999.000 -9999.000 -9999.000 0.000 0.066 0.175 0.313 0.455 0.607 0.747 0.852 0.960 1.071 1.180 1.287 1.396 1.513 1.608 1.644 1.655 1.596 1.541 1.492 1.437 1.361 1.281 1.190 1.081 0.919 0.762 0.624 0.489 0.359 0.225 0.078 0.000 0.000 0.000 0.000 0.000 0.000 0.000 0.000 0.000 0.000 0.000 0.000 0.000 0.000 0.041 0.121 0.204 0.299 0.399 0.520 0.631 0.682 0.734 0.800 0.865 0.921 0.963 0.916 0.872 0.839 0.800 0.711 0.624 0.563 0.498 0.408 0.325 0.293 0.254 0.150 0.047 0.000 0.000 0.000 0.000 0.000 0.000 0.000 0.000 0.121 0.338 0.515 0.688 0.782 0.876 0.976 1.077 1.160 1.241 1.271 1.303 1.383 1.465 1.650 1.835 2.005 2.174 2.341 2.509 2.703 2.898 3.120 3.344 3.416 3.489 3.623 3.760 3.759 3.754 3.598 3.438 3.276 3.115 3.033 2.955 3.001 3.053 3.098 3.144 3.048 2.942 2.750 2.551 2.284 2.011 1.721 1.430 1.217 1.011 0.824 0.639 0.568 0.508 0.525 0.551 0.457 0.350 0.185 0.012 0.000 0.000 0.165 0.359 0.413 0.447 0.557 0.679 0.760 0.835 0.941 1.053 1.186 1.324 1.619 1.945 2.469 3.031 2.144 0.970 1.938 3.341 3.174 2.682 3.653 4.937 4.740 4.205 3.687 3.178 3.183 3.313 2.789 2.088 1.951 1.975 2.373 2.877 2.859 2.688 2.666 2.686 2.790 2.920 2.823 2.653 2.572 2.522 2.423 2.307 2.613 3.069 3.152 3.099 3.367 3.755 5.063 6.730 5.996 4.304 4.619 5.765 6.194 6.307 6.552 6.862 8.333 10.324 10.907 10.838 10.526 10.093 8.577 6.541 6.546 7.571 8.793 10.121 10.474 10.313 10.063 9.765 8.559 6.837 5.835
-9999.000 -9999.000 -9999.000 -9999.000 -9999.000 -9999.000 -9999.000 -9999.000 -9999.000 -9999.000 -9999.000 -9999.000 -9999.000 -9999.000 -9999.000 -9999.000 -9999.000 -9999.000 -9999.000 -9999.000 -9999.000 -9999.000 -9999.000 -9999.000 -9999.000 -9999.000 -9999.000 -9999.000 -9999.000 -9999.000 -9999.000 -9999.000 -9999.000 -9999.000 -9999.000 -9999.000 -9999.000 -9999.000 -9999.000 -9999.000 -9999.000 -9999.000 -9999.000 -9999.000 -9999.000 -9999.000 -9999.000 -9999.000 -9999.000 -9999.000 -9999.000 -9999.000 -9999.000 -9999.000 -9999.000 -9999.000 -9999.000 -9999.000 -9999.000 -9999.000 -9999.000 -9999.000 -9999.000 -9999.000 -9999.000 -9999.000 -9999.000 -9999.000 -9999.000 -9999.000 -9999.000 -9999.000 -9999.000 -9999.000 -9999.000 -9999.000 -9999.000 -9999.000 -9999.000 -9999.000 -9999.000 -9999.000 -9999.000 -9999.000 -9999.000 -9999.000 -9999.000 -9999.000 -9999.000 -9999.000 -9999.000 -9999.000 -9999.000 -9999.000 -9999.000 -9999.000 -9999.000 -9999.000 -9999.000 -9999.000 -9999.000 -9999.000 -9999.000 -9999.000 -9999.000 -9999.000 -9999.000 -9999.000 -9999.000 -9999.000 -9999.000 -9999.000 -9999.000 -9999.000 -9999.000 -9999.000 -9999.000 -9999.000 -9999.000 -9999.000 -9999.000 -9999.000 -9999.000 -9999.000 -9999.000 -9999.000 -9999.000 -9999.000 -9999.000 -9999.000 -9999.000 -9999.000 -9999.000 -9999.000 -9999.000 -9999.000 -9999.000 -9999.000 -9999.000 -9999.000 -9999.000 0.017 0.097 0.191 0.317 0.442 0.565 0.679 0.774 0.877 0.999 1.118 1.228 1.336 1.441 1.524 1.549 1.555 1.510 1.468 1.441 1.405 1.342 1.273 1.184 1.079 0.925 0.774 0.630 0.500 0.415 0.325 0.219 0.109 0.000 0.000 0.000 0.000 0.000 0.000 0.000 0.000 0.000 0.000 0.000 0.000 0.004 0.058 0.125 0.192 0.257 0.327 0.424 0.519 0.602 0.685 0.772 0.852 0.897 0.927 0.871 0.818 0.783 0.745 0.678 0.610 0.536 0.459 0.363 0.274 0.230 0.181 0.083 0.000 0.000 0.000 0.000 0.000 0.000 0.000 0.000 0.034 0.203 0.373 0.529 0.682 0.795 0.907 1.008 1.106 1.159 1.212 1.253 1.297 1.394 1.492 1.661 1.829 1.987 2.144 2.262 2.381 2.564 2.747 2.916 3.086 3.129 3.173 3.253 3.335 3.390 3.445 3.352 3.256 3.118 2.979 2.871 2.765 2.772 2.784 2.779 2.774 2.675 2.572 2.394 2.213 2.011 1.806 1.549 1.288 1.110 0.938 0.779 0.620 0.545 0.478 0.432 0.390 0.262 0.127 0.029 0.000 0.000 0.000 0.088 0.257 0.335 0.401 0.535 0.677 0.806 0.931 1.062 1.192 1.290 1.382 1.428 1.471 2.120 2.874 2.057 0.942 2.158 3.831 3.765 3.338 3.950 4.797 4.607 4.178 3.701 3.211 3.187 3.277 2.811 2.202 2.102 2.133 2.346 2.614 2.621 2.551 2.574 2.625 2.708 2.802 2.766 2.687 2.624 2.567 2.534 2.508 2.763 3.120 3.473 3.814 4.486 5.273 6.771 8.541 6.930 4.023 4.319 5.882 6.575 6.912 7.420 7.988 9.056 10.379 10.899 11.033 11.039 10.980 9.068 6.285 6.506 8.194 9.660 11.021 11.142 10.617 9.955 9.229 7.881 6.183 5.373
-9999.000 -9999.000 -9999.000 -9999.000 -9999.000 -9999.000 -9999.000 -9999.000 -9999.000 -9999.000 -9999.000 -9999.000 -9999.000 -9999.000 -9999.000 -9999.000 -9999.000 -9999.000 -9999.000 -9999.000 -9999.000 -9999.000 -9999.000 -9999.000 -9999.000 -9999.000 -9999.000 -9999.000 -9999.000 -9999.000 -9999.000 -9999.000 -9999.000 -9999.000 -9999.000 -9999.000 -9999.000 -9999.000 -9999.000 -9999.000 -9999.000 -9999.000 -9999.000 -9999.000 -9999.000 -9999.000 -9999.000 -9999.000 -9999.000 -9999.000 -9999.000 -9999.000 -9999.000 -9999.000 -9999.000 -9999.000 -9999.000 -9999.000 -9999.000 -9999.000 -9999.000 -9999.000 -9999.000 -9999.000 -9999.000 -9999.000 -9999.000 -9999.000 -9999.000 -9999.000 -9999.000 -9999.000 -9999.000 -9999.000 -9999.000 -9999.000 -9999.000 -9999.000 -9999.000 -9999.000 -9999.000 -9999.000 -9999.000 -9999.000 -9999.000 -9999.000 -9999.000 -9999.000 -9999.000 -9999.000 -9999.000 -9999.000 -9999.000 -9999.000 -9999.000 -9999.000 -9999.000 -9999.000 -9999.000 -9999.000 -9999.000 -9999.000 -9999.000 -9999.000 -9999.000 -9999.000 -9999.000 -9999.000 -9999.000 -9999.000 -9999.000 -9999.000 -9999.000 -9999.000 -9999.000 -9999.000 -9999.000 -9999.000 -9999.000 -9999.000 -9999.000 -9999.000 -9999.000 -9999.000 -9999.000 -9999.000 -9999.000 -9999.000 -9999.000 -9999.000 -9999.000 -9999.000 -9999.000 -9999.000 -9999.000 -9999.000 -9999.000 -9999.000 -9999.000 -9999.000 -9999.000 -9999.000 0.053 0.151 0.256 0.368 0.497 0.612 0.695 0.787 0.897 1.013 1.138 1.252 1.338 1.407 1.434 1.461 1.487 1.493 1.449 1.400 1.335 1.265 1.180 1.088 0.976 0.858 0.724 0.597 0.491 0.385 0.277 0.166 0.043 0.000 0.000 0.000 0.000 0.000 0.000 0.000 0.000 0.000 0.000 0.000 0.021 0.079 0.150 0.218 0.269 0.327 0.414 0.499 0.580 0.661 0.741 0.816 0.867 0.901 0.842 0.785 0.746 0.704 0.650 0.591 0.511 0.428 0.333 0.242 0.186 0.126 0.038 0.000 0.000 0.000 0.000 0.000 0.000 0.000 0.019 0.157 0.304 0.450 0.575 0.701 0.818 0.934 1.027 1.118 1.162 1.206 1.259 1.314 1.415 1.517 1.645 1.775 1.918 2.060 2.154 2.249 2.413 2.576 2.699 2.821 2.835 2.851 2.898 2.946 3.036 3.126 3.084 3.041 2.926 2.810 2.691 2.571 2.548 2.528 2.474 2.420 2.319 2.217 2.060 1.900 1.753 1.607 1.382 1.152 0.999 0.850 0.722 0.595 0.517 0.443 0.341 0.236 0.081 0.000 0.000 0.000 0.000 0.000 0.012 0.155 0.259 0.356 0.512 0.676 0.852 1.029 1.182 1.332 1.393 1.442 1.231 0.983 1.770 2.725 1.997 0.973 2.394 4.261 4.391 4.183 4.284 4.459 4.343 4.160 3.824 3.452 3.353 3.319 2.886 2.357 2.340 2.447 2.412 2.345 2.399 2.481 2.507 2.517 2.516 2.512 2.582 2.671 2.678 2.659 2.735 2.840 2.929 3.019 3.802 4.806 6.035 7.337 8.929 10.629 8.028 3.851 4.249 6.381 7.193 7.489 8.572 9.961 9.824 9.087 9.489 10.359 11.009 11.556 9.516 6.306 6.445 8.151 9.301 10.190 10.217 9.810 8.868 7.662 6.492 5.330 5.029
-9999.000 -9999.000 -9999.000 -9999.000 -9999.000 -9999.000 -9999.000 -9999.000 -9999.000 -9999.000 -9999.000 -9999.000 -9999.000 -9999.000 -9999.000 -9999.000 -9999.000 -9999.000 -9999.000 -9999.000 -9999.000 -9999.000 -9999.000 -9999.000 -9999.000 -9999.000 -9999.000 -9999.000 -9999.000 -9999.000 -9999.000 -9999.000 -9999.000 -9999.000 -9999.000 -9999.000 -9999.000 -9999.000 -9999.000 -9999.000 -9999.000 -9999.000 -9999.000 -9999.000 -9999.000 -9999.000 -9999.000 -9999.000 -9999.000 -9999.000 -9999.000 -9999.000 -9999.000 -9999.000 -9999.000 -9999.000 -9999.000 -9999.000 -9999.000 -9999.000 -9999.000 -9999.000 -9999.000 -9999.000 -9999.000 -9999.000 -9999.000 -9999.000 -9999.000 -9999.000 -9999.000 -9999.000 -9999.000 -9999.000 -9999.000 -9999.000 -9999.000 -9999.000 -9999.000 -9999.000 -9999.000 -9999.000 -9999.000 -9999.000 -9999.000 -9999.000 -9999.000 -9999.000 -9999.000 -9999.000 -9999.000 -9999.000 -9999.000 -9999.000 -9999.000 -9999.000 -9999.000 -9999.000 -9999.000 -9999.000 0.084 0.125 0.067 0.075 0.160 0.167 0.080 -9999.000 -9999.000 -9999.000 -9999.000 -9999.000 -9999.000 -9999.000 -9999.000 -9999.000 -9999.000 -9999.000 -9999.000 -9999.000 -9999.000 -9999.000 -9999.000 -9999.000 -9999.000 -9999.000 -9999.000 -9999.000 -9999.000 -9999.000 -9999.000 -9999.000 -9999.000 -9999.000 -9999.000 -9999.000 -9999.000 -9999.000 -9999.000 -9999.000 -9999.000 -9999.000 0.003 0.100 0.197 0.305 0.437 0.550 0.625 0.709 0.816 0.930 1.062 1.174 1.239 1.295 1.327 1.375 1.459 1.505 1.455 1.399 1.333 1.263 1.185 1.107 1.029 0.940 0.818 0.695 0.570 0.448 0.338 0.225 0.107 0.000 0.000 0.000 0.000 0.000 0.000 0.000 0.000 0.000 0.000 0.000 0.038 0.099 0.176 0.246 0.286 0.334 0.413 0.491 0.566 0.640 0.709 0.776 0.837 0.878 0.816 0.757 0.712 0.667 0.622 0.571 0.487 0.401 0.307 0.217 0.147 0.077 0.003 0.000 0.000 0.000 0.000 0.000 0.000 0.000 0.125 0.276 0.418 0.555 0.644 0.736 0.847 0.956 1.037 1.115 1.169 1.223 1.287 1.352 1.446 1.538 1.601 1.669 1.791 1.913 2.012 2.112 2.246 2.378 2.463 2.546 2.532 2.520 2.571 2.623 2.705 2.787 2.771 2.755 2.660 2.565 2.469 2.371 2.339 2.307 2.213 2.119 2.019 1.919 1.802 1.684 1.557 1.429 1.239 1.045 0.862 0.679 0.602 0.529 0.452 0.374 0.271 0.167 0.039 0.000 0.000 0.000 0.000 0.000 0.000 0.099 0.236 0.376 0.553 0.735 0.932 1.131 1.328 1.523 1.710 1.892 1.958 2.000 2.263 2.572 1.895 1.053 2.545 4.435 4.420 4.068 4.196 4.412 4.022 3.522 3.301 3.132 2.972 2.816 2.580 2.320 2.399 2.557 2.546 2.491 2.556 2.652 2.715 2.768 2.762 2.740 2.750 2.773 2.778 2.777 3.234 3.816 3.392 2.679 3.901 5.724 7.215 8.604 9.765 10.866 8.628 5.160 5.091 6.314 7.036 7.551 8.937 10.668 10.015 8.395 8.736 9.892 10.963 11.992 10.348 7.512 7.508 8.803 9.619 10.204 9.802 8.957 7.882 6.668 5.903 5.356 5.287
-9999.000 -9999.000 -9999.000 -9999.000 -9999.000 -9999.000 -9999.000 -9999.000 -9999.000 -9999.000 -9999.000 -9999.000 -9999.000 -9999.000 -9999.000 -9999.000 -9999.000 -9999.000 -9999.000 -9999.000 -9999.000 -9999.000 -9999.000 -9999.000 -9999.000 -9999.000 -9999.000 -9999.000 -9999.000 -9999.000 -9999.000 -9999.000 -9999.000 -9999.000 -9999.000 -9999.000 -9999.000 -9999.000 -9999.000 -9999.000 -9999.000 -9999.000 -9999.000 -9999.000 -9999.000 -9999.000 -9999.000 -9999.000 -9999.000 -9999.000 -9999.000 -9999.000 -9999.000 -9999.000 -9999.000 -9999.000 -9999.000 -9999.000 -9999.000 -9999.000 -9999.000 -9999.000 -9999.000 -9999.000 -9999.000 -9999.000 -9999.000 -9999.000 -9999.000 -9999.000 -9999.000 -9999.000 -9999.000 -9999.000 -9999.000 -9999.000 -9999.000 -9999.000 -9999.000 -9999.000 -9999.000 -9999.000 -9999.000 -9999.000 -9999.000 -9999.000 -9999.000 -9999.000 0.010 0.069 0.167 0.173 0.090 -9999.000 -9999.000 -9999.000 -9999.000 -9999.000 -9999.000 0.126 0.276 0.303 0.192 0.222 0.410 0.453 0.329 0.167 -9999.000 -9999.000 -9999.000 -9999.000 -9999.000 -9999.000 -9999.000 -9999.000 -9999.000 -9999.000 -9999.000 -9999.000 -9999.000 -9999.000 -9999.000 -9999.000 -9999.000 -9999.000 -9999.000 -9999.000 -9999.000 -9999.000 -9999.000 -9999.000 -9999.000 -9999.000 -9999.000 -9999.000 -9999.000 -9999.000 -9999.000 -9999.000 -9999.000 -9999.000 -9999.000 0.025 0.145 0.267 0.395 0.505 0.580 0.671 0.796 0.918 1.033 1.124 1.160 1.203 1.261 1.322 1.393 1.443 1.444 1.425 1.356 1.296 1.259 1.200 1.088 0.984 0.904 0.815 0.701 0.587 0.470 0.348 0.207 0.077 0.000 0.000 0.000 0.000 0.000 0.000 0.000 0.000 0.000 0.000 0.000 0.017 0.115 0.208 0.289 0.372 0.465 0.555 0.628 0.701 0.773 0.837 0.872 0.892 0.841 0.788 0.725 0.665 0.621 0.571 0.492 0.409 0.301 0.197 0.119 0.043 0.000 0.000 0.000 0.000 0.000 0.000 0.000 0.055 0.209 0.361 0.485 0.605 0.675 0.749 0.868 0.984 1.066 1.146 1.201 1.258 1.329 1.401 1.476 1.548 1.571 1.597 1.695 1.793 1.890 1.988 2.093 2.196 2.247 2.295 2.256 2.219 2.268 2.318 2.387 2.456 2.459 2.462 2.386 2.310 2.240 2.170 2.127 2.085 1.958 1.830 1.732 1.634 1.548 1.463 1.356 1.249 1.089 0.928 0.725 0.519 0.486 0.461 0.384 0.304 0.202 0.098 0.000 0.000 0.000 0.000 0.000 0.000 0.000 0.043 0.215 0.396 0.595 0.796 1.014 1.234 1.475 1.718 2.043 2.376 2.774 3.176 2.837 2.406 1.791 1.144 2.681 4.564 4.334 3.756 4.024 4.436 3.679 2.716 2.606 2.655 2.423 2.137 2.150 2.220 2.392 2.587 2.712 2.818 2.880 2.933 3.059 3.202 3.242 3.255 3.116 2.940 2.907 2.912 3.942 5.251 4.055 2.143 3.827 6.588 8.071 9.160 9.379 9.333 8.794 8.039 6.857 5.580 5.999 7.009 8.313 9.735 9.487 8.589 8.909 9.717 10.882 12.187 11.863 10.833 10.611 10.764 11.295 11.985 10.468 7.973 7.167 7.124 7.376 7.762 7.225
-9999.000 -9999.000 -9999.000 -9999.000 -9999.000 -9999.000 -9999.000 -9999.000 -9999.000 -9999.000 -9999.000 -9999.000 -9999.000 -9999.000 -9999.000 -9999.000 -9999.000 -9999.000 -9999.000 -9999.000 -9999.000 -9999.000 -9999.000 -9999.000 -9999.000 -9999.000 -9999.000 -9999.000 -9999.000 -9999.000 -9999.000 -9999.000 -9999.000 -9999.000 -9999.000 -9999.000 -9999.000 -9999.000 -9999.000 -9999.000 -9999.000 -9999.000 -9999.000 -9999.000 -9999.000 -9999.000 -9999.000 -9999.000 -9999.000 -9999.000 -9999.000 -9999.000 -9999.000 -9999.000 -9999.000 -9999.000 -9999.000 -9999.000 -9999.000 -9999.000 -9999.000 -9999.000 -9999.000 -9999.000 -9999.000 -9999.000 -9999.000 -9999.000 -9999.000 -9999.000 -9999.000 -9999.000 -9999.000 -9999.000 -9999.000 -9999.000 -9999.000 -9999.000 -9999.000 -9999.000 -9999.000 -9999.000 -9999.000 -9999.000 -9999.000 -9999.000 -9999.000 -9999.000 -9999.000 0.160 0.466 0.508 0.303 0.252 0.345 0.376 0.348 0.299 0.231 0.230 0.298 0.299 0.226 0.409 0.871 0.954 0.618 0.304 0.012 -9999.000 -9999.000 -9999.000 -9999.000 -9999.000 -9999.000 -9999.000 -9999.000 -9999.000 -9999.000 -9999.000 -9999.000 -9999.000 -9999.000 -9999.000 -9999.000 -9999.000 -9999.000 -9999.000 -9999.000 -9999.000 -9999.000 -9999.000 -9999.000 -9999.000 -9999.000 -9999.000 -9999.000 -9999.000 -9999.000 -9999.000 -9999.000 -9999.000 -9999.000 0.000 0.114 0.242 0.365 0.472 0.548 0.645 0.786 0.913 1.011 1.081 1.090 1.121 1.198 1.270 1.330 1.385 1.429 1.442 1.379 1.334 1.333 1.291 1.148 1.033 0.993 0.935 0.833 0.725 0.603 0.470 0.306 0.158 0.057 0.000 0.000 0.000 0.000 0.000 0.000 0.000 0.000 0.000 0.000 0.000 0.042 0.162 0.290 0.415 0.527 0.632 0.705 0.779 0.859 0.923 0.923 0.917 0.882 0.837 0.753 0.676 0.630 0.580 0.510 0.431 0.302 0.180 0.097 0.015 0.000 0.000 0.000 0.000 0.000 0.000 0.035 0.132 0.279 0.420 0.518 0.612 0.675 0.745 0.883 1.017 1.116 1.211 1.260 1.312 1.387 1.460 1.505 1.548 1.559 1.574 1.643 1.713 1.799 1.885 1.965 2.043 2.069 2.092 2.034 1.979 2.017 2.055 2.099 2.143 2.148 2.152 2.088 2.024 1.992 1.959 1.912 1.864 1.728 1.593 1.500 1.408 1.311 1.214 1.132 1.049 0.891 0.732 0.593 0.453 0.404 0.359 0.290 0.219 0.131 0.043 0.000 0.000 0.000 0.000 0.000 0.000 0.000 0.020 0.188 0.366 0.575 0.787 1.022 1.260 1.562 1.871 2.225 2.584 2.988 3.398 2.667 1.794 2.001 2.336 3.144 4.045 3.755 3.278 3.533 3.909 3.363 2.652 2.657 2.790 2.541 2.221 2.224 2.292 2.465 2.659 2.809 2.950 3.046 3.131 3.299 3.486 3.639 3.782 3.624 3.391 3.847 4.464 5.288 6.193 4.829 2.813 4.284 6.789 8.384 9.688 9.201 8.174 8.955 10.290 8.930 6.666 6.713 7.570 8.429 9.300 9.161 8.655 8.972 9.597 10.919 12.508 13.138 13.387 12.987 12.324 12.555 13.173 10.882 7.315 6.519 6.992 8.144 9.578 8.645
0.298 0.171 0.008 -9999.000 -9999.000 -9999.000 -9999.000 -9999.000 -9999.000 -9999.000 -9999.000 -9999.000 -9999.000 -9999.000 -9999.000 -9999.000 -9999.000 -9999.000 -9999.000 -9999.000 -9999.000 -9999.000 -9999.000 -9999.000 0.127 0.210 0.200 0.092 -9999.000 -9999.000 -9999.000 -9999.000 -9999.000 -9999.000 -9999.000 -9999.000 -9999.000 -9999.000 -9999.000 -9999.000 -9999.000 -9999.000 -9999.000 -9999.000 -9999.000 -9999.000 -9999.000 -9999.000 -9999.000 -9999.000 -9999.000 -9999.000 -9999.000 -9999.000 -9999.000 -9999.000 -9999.000 -9999.000 -9999.000 -9999.000 -9999.000 -9999.000 -9999.000 -9999.000 -9999.000 -9999.000 -9999.000 -9999.000 -9999.000 -9999.000 -9999.000 -9999.000 -9999.000 -9999.000 -9999.000 -9999.000 -9999.000 -9999.000 -9999.000 -9999.000 -9999.000 -9999.000 -9999.000 -9999.000 -9999.000 -9999.000 -9999.000 -9999.000 -9999.000 0.249 0.794 0.864 0.503 0.525 0.903 1.060 1.010 0.820 0.496 0.300 0.232 0.203 0.213 0.625 1.463 1.582 0.927 0.400 0.011 -9999.000 -9999.000 -9999.000 -9999.000 -9999.000 -9999.000 -9999.000 -9999.000 -9999.000 -9999.000 -9999.000 -9999.000 -9999.000 -9999.000 -9999.000 -9999.000 -9999.000 -9999.000 -9999.000 -9999.000 -9999.000 -9999.000 -9999.000 -9999.000 -9999.000 -9999.000 -9999.000 -9999.000 -9999.000 -9999.000 -9999.000 -9999.000 -9999.000 -9999.000 0.038 0.145 0.256 0.374 0.479 0.562 0.667 0.814 0.939 1.019 1.072 1.069 1.088 1.156 1.225 1.296 1.349 1.363 1.380 1.401 1.412 1.405 1.371 1.272 1.186 1.131 1.072 0.996 0.902 0.763 0.610 0.419 0.247 0.125 0.014 0.000 0.000 0.000 0.000 0.000 0.000 0.000 0.000 0.000 0.000 0.061 0.178 0.317 0.458 0.605 0.742 0.844 0.937 0.992 1.033 1.011 0.986 0.944 0.898 0.828 0.755 0.670 0.588 0.509 0.423 0.299 0.182 0.101 0.020 0.000 0.000 0.000 0.000 0.000 0.000 0.075 0.198 0.335 0.468 0.564 0.657 0.729 0.807 0.940 1.071 1.179 1.281 1.330 1.380 1.446 1.509 1.537 1.563 1.561 1.562 1.595 1.633 1.706 1.778 1.825 1.871 1.875 1.875 1.806 1.742 1.772 1.801 1.820 1.839 1.846 1.852 1.804 1.755 1.748 1.741 1.689 1.636 1.500 1.364 1.276 1.187 1.080 0.973 0.909 0.845 0.690 0.534 0.459 0.385 0.321 0.257 0.196 0.134 0.061 0.000 0.000 0.000 0.000 0.000 0.000 0.000 0.000 0.000 0.162 0.334 0.552 0.773 1.025 1.280 1.645 2.020 2.388 2.755 3.108 3.462 2.359 1.092 2.295 3.787 3.662 3.345 3.052 2.759 2.947 3.210 3.066 2.849 2.974 3.154 2.923 2.620 2.510 2.438 2.575 2.751 2.870 2.978 3.127 3.283 3.475 3.675 3.987 4.320 4.235 4.052 5.423 7.156 7.130 6.685 5.731 4.624 5.216 6.298 8.150 10.203 9.260 7.454 9.081 11.726 11.461 10.269 9.855 9.714 9.661 9.646 9.149 8.482 8.853 9.592 11.180 13.076 13.849 14.196 13.738 12.968 12.759 12.787 10.686 7.687 5.997 4.896 6.497 9.259 8.179
0.858 0.695 0.522 0.309 0.086 0.041 0.044 -9999.000 -9999.000 -9999.000 -9999.000 -9999.000 0.010 -9999.000 -9999.000 -9999.000 -9999.000 -9999.000 -9999.000 -9999.000 -9999.000 -9999.000 -9999.000 0.195 0.719 1.010 1.213 1.280 1.294 0.682 -9999.000 -9999.000 0.053 -9999.000 -9999.000 -9999.000 -9999.000 -9999.000 -9999.000 -9999.000 -9999.000 -9999.000 -9999.000 -9999.000 -9999.000 -9999.000 -9999.000 -9999.000 -9999.000 -9999.000 -9999.000 -9999.000 -9999.000 -9999.000 -9999.000 -9999.000 -9999.000 -9999.000 -9999.000 -9999.000 -9999.000 -9999.000 -9999.000 -9999.000 -9999.000 -9999.000 -9999.000 -9999.000 -9999.000 -9999.000 -9999.000 -9999.000 -9999.000 -9999.000 -9999.000 -9999.000 -9999.000 -9999.000 -9999.000 -9999.000 -9999.000 -9999.000 0.006 -9999.000 -9999.000 -9999.000 -9999.000 -9999.000 0.000 0.462 1.115 1.133 0.592 0.649 1.244 1.517 1.491 1.218 0.711 0.378 0.214 0.149 0.183 0.795 1.994 2.086 1.026 0.305 -9999.000 -9999.000 -9999.000 -9999.000 -9999.000 -9999.000 -9999.000 -9999.000 -9999.000 -9999.000 -9999.000 -9999.000 -9999.000 -9999.000 -9999.000 -9999.000 -9999.000 -9999.000 -9999.000 -9999.000 -9999.000 -9999.000 -9999.000 -9999.000 -9999.000 -9999.000 -9999.000 -9999.000 -9999.000 -9999.000 -9999.000 -9999.000 -9999.000 -9999.000 -9999.000 0.068 0.166 0.269 0.382 0.488 0.580 0.692 0.842 0.962 1.026 1.063 1.048 1.058 1.117 1.183 1.265 1.316 1.302 1.323 1.424 1.489 1.477 1.452 1.397 1.337 1.270 1.208 1.159 1.079 0.922 0.749 0.532 0.335 0.192 0.063 0.000 0.000 0.000 0.000 0.000 0.000 0.000 0.000 0.000 0.000 0.097 0.207 0.350 0.502 0.687 0.862 1.002 1.117 1.140 1.151 1.112 1.071 1.016 0.964 0.922 0.862 0.724 0.595 0.497 0.398 0.293 0.194 0.120 0.045 0.000 0.000 0.000 0.000 0.000 0.000 0.109 0.255 0.381 0.506 0.623 0.737 0.838 0.938 1.043 1.148 1.256 1.359 1.413 1.466 1.505 1.544 1.576 1.604 1.586 1.569 1.558 1.552 1.611 1.664 1.662 1.660 1.645 1.627 1.568 1.514 1.545 1.575 1.567 1.561 1.572 1.582 1.568 1.552 1.521 1.489 1.437 1.384 1.284 1.184 1.094 1.004 0.896 0.789 0.693 0.597 0.454 0.311 0.279 0.247 0.213 0.180 0.121 0.061 0.001 0.000 0.000 0.000 0.000 0.000 0.000 0.000 0.000 0.051 0.189 0.331 0.524 0.721 0.993 1.270 1.655 2.048 2.318 2.579 2.623 2.652 1.836 0.920 2.297 3.939 3.878 3.603 3.194 2.772 2.725 2.735 2.820 2.911 2.913 2.906 2.835 2.747 2.660 2.571 2.739 2.951 3.055 3.141 3.228 3.318 3.652 4.029 4.301 4.555 4.470 4.310 5.995 8.112 7.878 7.069 6.700 6.431 6.378 6.394 8.112 10.296 9.348 7.509 9.329 12.229 12.555 12.106 11.604 11.076 10.615 10.169 9.271 8.237 8.547 9.314 10.967 12.940 14.015 14.743 14.196 13.187 12.700 12.403 10.581 8.146 5.850 3.600 5.324 8.765 7.519
1.301 1.162 1.024 0.816 0.590 0.486 0.413 0.322 0.226 0.148 0.077 0.110 0.170 0.117 0.033 -9999.000 -9999.000 -9999.000 -9999.000 0.146 0.400 0.276 0.035 0.561 1.340 1.784 2.114 2.462 2.803 2.020 0.819 0.520 0.577 0.490 0.346 0.211 0.087 0.310 0.668 0.423 -9999.000 -9999.000 -9999.000 -9999.000 -9999.000 -9999.000 -9999.000 -9999.000 -9999.000 -9999.000 -9999.000 -9999.000 -9999.000 -9999.000 -9999.000 -9999.000 -9999.000 -9999.000 -9999.000 -9999.000 -9999.000 -9999.000 -9999.000 -9999.000 -9999.000 -9999.000 0.002 -9999.000 -9999.000 -9999.000 -9999.000 -9999.000 -9999.000 -9999.000 -9999.000 -9999.000 -9999.000 -9999.000 -9999.000 -9999.000 -9999.000 0.045 0.378 0.334 0.001 -9999.000 -9999.000 0.044 0.244 0.723 1.434 1.363 0.629 0.704 1.482 1.859 1.879 1.548 0.897 0.461 0.227 0.122 0.142 0.934 2.483 2.492 0.957 0.057 -9999.000 -9999.000 -9999.000 -9999.000 -9999.000 -9999.000 -9999.000 -9999.000 -9999.000 -9999.000 -9999.000 -9999.000 -9999.000 -9999.000 -9999.000 -9999.000 -9999.000 -9999.000 -9999.000 -9999.000 -9999.000 -9999.000 -9999.000 -9999.000 -9999.000 -9999.000 -9999.000 -9999.000 -9999.000 -9999.000 -9999.000 -9999.000 -9999.000 -9999.000 -9999.000 0.012 0.150 0.278 0.391 0.502 0.609 0.728 0.869 0.974 1.017 1.042 1.035 1.053 1.118 1.188 1.270 1.329 1.341 1.379 1.472 1.528 1.504 1.479 1.451 1.422 1.394 1.361 1.316 1.249 1.127 0.978 0.765 0.539 0.281 0.075 0.000 0.000 0.000 0.000 0.000 0.000 0.000 0.037 0.099 0.152 0.181 0.234 0.360 0.513 0.749 0.977 1.179 1.337 1.346 1.336 1.256 1.177 1.104 1.037 0.997 0.938 0.806 0.673 0.541 0.412 0.296 0.187 0.106 0.027 0.000 0.000 0.000 0.000 0.000 0.000 0.147 0.296 0.434 0.569 0.690 0.811 0.928 1.041 1.139 1.238 1.347 1.449 1.503 1.553 1.571 1.589 1.607 1.620 1.585 1.549 1.502 1.463 1.507 1.544 1.500 1.457 1.423 1.388 1.339 1.295 1.324 1.350 1.319 1.290 1.304 1.318 1.330 1.339 1.290 1.241 1.188 1.135 1.069 1.002 0.909 0.817 0.710 0.602 0.477 0.351 0.222 0.092 0.100 0.109 0.106 0.103 0.046 0.000 0.000 0.000 0.000 0.000 0.000 0.000 0.000 0.000 0.000 0.112 0.221 0.330 0.495 0.664 0.956 1.256 1.652 2.055 2.201 2.329 1.996 1.629 1.269 0.900 2.212 3.699 4.012 4.189 3.622 2.973 2.637 2.345 2.596 2.915 2.674 2.361 2.519 2.740 2.737 2.699 2.936 3.217 3.320 3.393 3.340 3.268 3.834 4.515 4.582 4.532 4.379 4.205 5.613 7.369 7.552 7.369 7.739 8.227 7.825 7.218 8.298 9.815 9.502 8.690 9.711 11.258 11.336 10.994 10.987 11.069 11.082 11.069 9.663 7.835 7.822 8.398 9.590 10.996 12.736 14.570 13.790 12.094 11.822 12.062 10.780 8.913 7.342 5.876 6.196 7.276 5.922
1.636 1.575 1.515 1.409 1.290 1.214 1.147 1.038 0.918 0.651 0.349 0.383 0.501 0.404 0.250 0.014 -9999.000 -9999.000 0.053 0.549 1.128 0.779 0.148 0.874 2.029 2.480 2.699 3.628 4.787 4.375 3.405 2.873 2.508 2.187 1.884 1.278 0.564 0.918 1.692 1.244 0.300 -9999.000 -9999.000 -9999.000 -9999.000 -9999.000 -9999.000 -9999.000 -9999.000 -9999.000 -9999.000 -9999.000 -9999.000 -9999.000 -9999.000 -9999.000 -9999.000 -9999.000 -9999.000 -9999.000 -9999.000 -9999.000 -9999.000 -9999.000 -9999.000 0.180 0.656 0.429 -9999.000 -9999.000 -9999.000 -9999.000 -9999.000 -9999.000 -9999.000 0.105 0.298 0.230 -9999.000 -9999.000 0.044 0.525 1.273 1.672 1.805 1.784 1.656 1.268 0.690 0.687 1.139 1.048 0.501 0.567 1.160 1.457 1.496 1.245 0.735 0.525 0.583 0.482 0.247 1.227 3.346 3.370 1.372 0.241 -9999.000 -9999.000 -9999.000 -9999.000 -9999.000 -9999.000 -9999.000 -9999.000 -9999.000 -9999.000 -9999.000 -9999.000 -9999.000 -9999.000 -9999.000 -9999.000 -9999.000 -9999.000 -9999.000 -9999.000 -9999.000 -9999.000 -9999.000 -9999.000 -9999.000 -9999.000 -9999.000 -9999.000 -9999.000 -9999.000 -9999.000 -9999.000 -9999.000 -9999.000 -9999.000 0.000 0.148 0.300 0.413 0.529 0.652 0.776 0.905 0.994 1.014 1.026 1.024 1.047 1.117 1.191 1.274 1.342 1.380 1.435 1.520 1.566 1.531 1.507 1.505 1.507 1.519 1.514 1.473 1.420 1.336 1.215 1.009 0.752 0.371 0.082 0.017 0.000 0.000 0.000 0.000 0.000 0.000 0.187 0.279 0.333 0.276 0.260 0.363 0.513 0.804 1.091 1.363 1.572 1.576 1.549 1.417 1.294 1.200 1.114 1.060 0.998 0.904 0.793 0.619 0.451 0.305 0.168 0.068 0.000 0.000 0.000 0.000 0.000 0.000 0.062 0.188 0.322 0.496 0.660 0.768 0.877 0.993 1.110 1.229 1.346 1.457 1.559 1.603 1.643 1.650 1.653 1.623 1.590 1.530 1.471 1.408 1.356 1.386 1.408 1.341 1.276 1.225 1.176 1.140 1.107 1.121 1.132 1.089 1.050 1.064 1.077 1.076 1.073 1.045 1.015 0.961 0.907 0.858 0.806 0.702 0.598 0.489 0.380 0.274 0.168 0.082 0.000 0.000 0.000 0.000 0.000 0.000 0.000 0.000 0.000 0.000 0.000 0.000 0.000 0.000 0.000 0.000 0.054 0.176 0.298 0.472 0.648 0.905 1.168 1.538 1.916 2.230 2.536 2.225 1.865 1.408 0.947 2.305 3.826 4.069 4.192 3.509 2.742 2.500 2.312 2.704 3.164 3.021 2.796 2.986 3.235 3.246 3.222 3.466 3.751 3.825 3.865 3.743 3.593 4.058 4.641 4.641 4.529 4.403 4.273 5.446 6.887 7.258 7.403 8.096 8.914 8.547 7.894 8.535 9.494 9.542 9.363 9.803 10.405 10.557 10.572 10.778 11.052 11.396 11.755 10.223 8.110 7.652 7.729 8.801 10.155 12.097 14.277 13.298 11.223 10.880 11.184 10.441 9.289 8.513 7.868 6.872 5.763 4.470
1.881 1.868 1.857 1.814 1.764 1.719 1.674 1.884 2.136 1.652 1.006 0.951 1.042 0.855 0.598 0.417 0.248 0.396 0.633 1.247 1.974 1.566 0.809 1.521 2.703 3.095 3.233 4.500 6.151 6.118 5.499 4.878 4.251 3.712 3.215 2.261 1.123 1.586 2.673 2.061 0.766 0.243 0.052 -9999.000 -9999.000 -9999.000 -9999.000 -9999.000 -9999.000 -9999.000 -9999.000 -9999.000 -9999.000 -9999.000 -9999.000 -9999.000 -9999.000 -9999.000 -9999.000 -9999.000 -9999.000 0.018 0.071 0.050 -9999.000 0.506 1.344 1.046 0.094 -9999.000 0.043 0.112 0.110 0.273 0.538 0.745 0.914 0.708 0.257 0.172 0.333 1.128 2.360 3.356 4.178 4.330 4.002 2.894 1.214 0.500 0.526 0.452 0.288 0.310 0.494 0.591 0.611 0.521 0.334 0.583 1.209 1.141 0.466 1.659 4.546 4.681 2.250 0.849 0.432 0.140 -9999.000 -9999.000 -9999.000 -9999.000 -9999.000 -9999.000 -9999.000 -9999.000 -9999.000 -9999.000 -9999.000 -9999.000 -9999.000 -9999.000 -9999.000 -9999.000 -9999.000 -9999.000 -9999.000 -9999.000 -9999.000 -9999.000 0.052 0.106 0.101 0.048 -9999.000 -9999.000 -9999.000 -9999.000 -9999.000 -9999.000 -9999.000 0.010 0.223 0.399 0.520 0.651 0.798 0.927 1.029 1.090 1.084 1.067 1.030 1.024 1.071 1.140 1.250 1.348 1.427 1.499 1.560 1.590 1.561 1.544 1.555 1.572 1.605 1.629 1.636 1.655 1.701 1.694 1.571 1.267 0.556 0.057 0.047 0.051 0.088 0.068 0.000 0.000 0.297 0.609 0.718 0.711 0.390 0.193 0.337 0.530 0.870 1.214 1.570 1.837 1.829 1.781 1.601 1.440 1.336 1.232 1.132 1.043 0.988 0.906 0.725 0.537 0.323 0.130 0.018 0.000 0.000 0.000 0.000 0.000 0.000 0.091 0.228 0.375 0.578 0.766 0.880 0.995 1.113 1.233 1.365 1.493 1.601 1.697 1.721 1.741 1.732 1.716 1.650 1.582 1.491 1.402 1.323 1.253 1.264 1.267 1.182 1.099 1.034 0.972 0.944 0.919 0.919 0.916 0.863 0.815 0.828 0.840 0.826 0.813 0.802 0.790 0.734 0.679 0.647 0.611 0.496 0.382 0.271 0.160 0.072 0.000 0.000 0.000 0.000 0.000 0.000 0.000 0.000 0.000 0.000 0.000 0.000 0.000 0.000 0.000 0.000 0.000 0.000 0.000 0.119 0.260 0.450 0.642 0.851 1.062 1.397 1.738 2.303 2.877 2.715 2.503 1.774 1.012 2.467 4.097 4.089 3.943 3.157 2.311 2.346 2.465 2.984 3.546 3.708 3.818 3.932 4.050 4.042 4.017 4.234 4.485 4.516 4.515 4.392 4.250 4.312 4.416 4.490 4.555 4.549 4.529 5.525 6.717 6.991 7.085 7.532 8.057 8.257 8.373 8.862 9.444 9.362 9.124 9.406 9.817 10.653 11.580 11.418 10.985 11.338 11.899 11.260 10.266 9.049 7.793 9.904 12.998 13.590 13.447 12.522 11.321 9.593 7.729 7.388 7.540 7.768 8.012 6.504 4.373 4.070
2.020 2.016 2.010 1.973 1.931 1.913 1.899 2.942 4.194 3.470 2.317 2.040 1.967 1.621 1.211 1.390 1.707 1.993 2.270 2.673 3.114 3.161 3.086 3.158 3.293 3.439 3.586 4.195 4.962 5.242 5.349 5.241 5.056 4.282 3.316 2.762 2.340 2.641 3.218 2.926 2.293 1.338 0.274 -9999.000 -9999.000 -9999.000 -9999.000 -9999.000 -9999.000 -9999.000 -9999.000 -9999.000 -9999.000 -9999.000 -9999.000 -9999.000 -9999.000 -9999.000 -9999.000 -9999.000 -9999.000 0.211 0.618 0.708 0.632 1.033 1.699 1.626 1.128 1.136 1.437 1.812 2.224 2.486 2.663 2.541 2.241 1.971 1.710 1.836 2.215 2.690 3.250 3.788 4.311 4.449 4.301 3.147 1.265 0.486 0.523 0.444 0.282 0.226 0.250 0.248 0.226 0.226 0.242 0.588 1.219 1.161 0.496 1.716 4.613 4.957 2.964 1.668 1.039 0.577 0.273 0.004 -9999.000 -9999.000 -9999.000 -9999.000 -9999.000 -9999.000 -9999.000 0.017 0.028 -9999.000 -9999.000 -9999.000 -9999.000 -9999.000 -9999.000 -9999.000 -9999.000 -9999.000 0.036 0.207 0.300 0.336 0.298 0.205 0.039 -9999.000 -9999.000 -9999.000 -9999.000 -9999.000 -9999.000 0.000 0.295 0.500 0.634 0.781 0.949 1.080 1.155 1.188 1.156 1.108 1.037 1.001 1.025 1.090 1.226 1.356 1.475 1.563 1.600 1.615 1.591 1.582 1.604 1.636 1.688 1.741 1.799 1.900 2.088 2.208 2.181 1.825 0.751 0.027 0.079 0.164 0.325 0.366 0.127 0.120 0.679 1.114 1.240 1.152 0.506 0.094 0.300 0.553 0.941 1.344 1.789 2.115 2.094 2.023 1.798 1.602 1.496 1.376 1.210 1.078 1.063 1.016 0.853 0.659 0.348 0.078 0.000 0.000 0.000 0.000 0.000 0.000 0.000 0.079 0.267 0.461 0.684 0.895 1.044 1.188 1.313 1.441 1.576 1.706 1.804 1.886 1.872 1.856 1.822 1.783 1.708 1.625 1.490 1.361 1.258 1.165 1.140 1.109 1.023 0.938 0.871 0.807 0.765 0.727 0.720 0.709 0.657 0.609 0.618 0.626 0.615 0.603 0.583 0.561 0.515 0.470 0.447 0.420 0.323 0.225 0.131 0.038 0.000 0.000 0.000 0.000 0.000 0.000 0.000 0.000 0.000 0.000 0.000 0.000 0.000 0.000 0.000 0.000 0.000 0.000 0.000 0.000 0.137 0.356 0.582 0.808 0.898 0.985 1.114 1.250 2.299 3.381 2.748 2.036 1.889 1.757 2.848 4.038 3.966 3.797 3.198 2.558 2.661 2.834 3.132 3.450 3.665 3.871 4.359 4.864 4.581 4.216 4.482 4.824 4.914 4.968 4.921 4.858 4.712 4.554 4.684 4.859 4.895 4.909 5.579 6.375 6.405 6.300 6.890 7.596 8.239 8.871 8.936 8.900 8.908 8.908 9.119 9.381 10.357 11.530 11.559 11.259 11.653 12.240 12.236 12.075 10.198 7.849 10.471 14.556 14.129 12.333 11.464 10.899 8.312 5.021 4.966 6.019 7.092 8.160 6.173 3.113 3.770
2.101 2.098 2.091 2.063 2.030 2.035 2.047 3.390 5.015 4.353 3.195 2.932 2.861 2.421 1.899 2.460 3.268 3.447 3.492 3.698 3.942 4.363 4.833 4.461 3.850 3.816 3.948 3.994 4.013 4.517 5.177 5.545 5.810 4.804 3.389 3.220 3.469 3.618 3.731 3.770 3.784 2.406 0.501 -9999.000 -9999.000 -9999.000 0.139 -9999.000 -9999.000 -9999.000 -9999.000 -9999.000 -9999.000 -9999.000 -9999.000 -9999.000 -9999.000 -9999.000 -9999.000 -9999.000 -9999.000 0.410 1.213 1.433 1.359 1.590 1.985 2.209 2.330 2.641 3.059 3.826 4.784 5.177 5.247 4.703 3.801 3.522 3.613 4.073 4.761 4.645 4.030 3.611 3.324 3.325 3.508 2.646 1.055 0.585 0.914 0.815 0.411 0.270 0.323 0.307 0.238 0.283 0.414 0.529 0.641 0.576 0.352 1.360 3.431 4.097 3.511 2.741 1.828 1.129 0.626 0.269 0.046 -9999.000 -9999.000 -9999.000 0.113 0.252 0.328 0.346 0.303 0.244 0.166 0.069 -9999.000 -9999.000 -9999.000 -9999.000 -9999.000 0.171 0.344 0.488 0.595 0.619 0.541 0.395 0.163 -9999.000 -9999.000 -9999.000 -9999.000 -9999.000 -9999.000 0.007 0.337 0.618 0.832 1.020 1.171 1.276 1.315 1.327 1.298 1.227 1.091 0.981 0.912 0.985 1.286 1.525 1.662 1.772 1.833 1.821 1.679 1.599 1.629 1.698 1.838 1.915 1.872 2.011 2.504 2.895 3.087 2.837 1.666 0.764 0.452 0.390 0.861 1.211 1.291 1.393 1.570 1.781 2.047 1.950 0.959 0.310 0.528 0.756 1.015 1.389 2.066 2.519 2.358 2.175 1.916 1.712 1.671 1.571 1.297 1.103 1.158 1.167 1.031 0.828 0.395 0.037 0.000 0.000 0.000 0.000 0.000 0.000 0.000 0.116 0.347 0.577 0.808 1.030 1.207 1.378 1.517 1.656 1.794 1.922 1.999 2.059 2.028 1.992 1.930 1.864 1.771 1.667 1.489 1.319 1.193 1.076 1.017 0.956 0.868 0.782 0.715 0.650 0.593 0.540 0.527 0.509 0.457 0.410 0.412 0.414 0.403 0.392 0.364 0.335 0.297 0.261 0.247 0.230 0.149 0.069 0.000 0.000 0.000 0.000 0.000 0.000 0.000 0.000 0.000 0.000 0.000 0.000 0.000 0.000 0.000 0.000 0.000 0.000 0.000 0.000 0.000 0.000 0.174 0.486 0.755 1.023 0.971 0.914 0.782 0.652 2.275 3.954 2.590 1.103 1.914 2.824 3.320 3.805 3.775 3.708 3.464 3.200 3.254 3.335 3.184 3.022 3.105 3.211 4.404 5.692 4.901 3.897 4.272 4.803 5.035 5.228 5.329 5.416 5.281 5.117 5.287 5.506 5.495 5.449 5.595 5.783 5.333 4.780 6.141 7.828 8.684 9.384 8.519 7.366 7.896 8.754 9.088 9.313 9.032 8.665 10.399 12.576 13.079 13.192 12.940 12.598 10.507 7.963 8.638 10.226 10.337 10.000 8.778 7.317 7.350 7.767 7.110 6.166 6.906 8.176 6.490 3.817 4.499
2.097 2.082 2.062 2.039 2.016 2.033 2.057 2.660 3.386 3.368 3.185 3.401 3.694 3.310 2.783 3.775 5.096 4.469 3.412 3.437 3.718 4.098 4.503 4.486 4.351 4.336 4.356 4.429 4.516 4.631 4.765 5.366 6.097 4.967 3.267 3.056 3.322 3.590 3.856 3.944 3.971 3.117 1.939 1.540 1.427 1.380 1.363 0.779 -9999.000 -9999.000 -9999.000 -9999.000 -9999.000 -9999.000 -9999.000 -9999.000 0.280 0.535 0.754 0.982 1.212 1.625 2.132 2.216 2.091 2.244 2.537 2.767 2.965 3.155 3.346 4.027 4.975 5.315 5.316 4.717 3.771 3.692 4.119 4.509 4.889 4.618 3.931 3.450 3.098 2.944 2.929 2.169 0.901 0.570 0.889 0.871 0.606 0.445 0.367 0.301 0.242 0.317 0.496 0.487 0.332 0.267 0.273 0.961 2.217 2.976 3.306 3.006 2.160 1.447 0.857 0.490 0.322 0.296 0.399 0.504 0.618 0.683 0.701 0.672 0.593 0.520 0.454 0.381 0.300 0.265 0.279 0.335 0.441 0.548 0.656 0.773 0.898 0.919 0.817 0.623 0.319 0.053 -9999.000 -9999.000 -9999.000 -9999.000 -9999.000 0.000 0.382 0.740 1.038 1.264 1.395 1.472 1.474 1.465 1.441 1.345 1.144 0.959 0.797 0.881 1.352 1.701 1.858 1.990 2.081 2.040 1.770 1.614 1.651 1.761 1.999 2.095 1.928 2.105 2.930 3.623 4.062 3.956 2.759 1.695 0.912 0.654 1.496 2.243 2.789 3.039 2.645 2.515 2.973 2.899 1.562 0.676 0.887 1.049 1.087 1.392 2.381 2.996 2.618 2.267 1.980 1.787 1.858 1.805 1.392 1.119 1.269 1.357 1.255 1.042 0.465 0.008 0.000 0.000 0.000 0.000 0.000 0.000 0.000 0.220 0.485 0.741 0.958 1.172 1.371 1.563 1.727 1.886 2.024 2.143 2.172 2.198 2.199 2.184 2.085 1.983 1.852 1.709 1.489 1.280 1.127 0.984 0.901 0.818 0.732 0.650 0.596 0.539 0.458 0.384 0.375 0.361 0.319 0.277 0.243 0.211 0.195 0.181 0.179 0.173 0.118 0.065 0.036 0.008 0.000 0.000 0.000 0.000 0.000 0.000 0.000 0.000 0.000 0.000 0.000 0.000 0.000 0.000 0.000 0.000 0.000 0.000 0.092 0.204 0.167 0.129 0.018 0.000 0.432 0.953 1.260 1.563 1.392 1.215 0.930 0.644 2.131 3.677 2.305 0.824 2.252 3.791 3.680 3.502 3.632 3.774 3.817 3.849 3.947 4.048 3.688 3.293 3.243 3.223 4.501 5.904 4.968 3.800 4.122 4.605 4.768 4.901 5.165 5.440 5.575 5.681 5.929 6.195 6.064 5.881 5.980 6.106 5.357 4.472 6.133 8.231 8.992 9.529 8.372 6.875 7.493 8.549 9.009 9.338 8.343 7.049 9.931 13.752 14.197 13.876 13.499 13.100 11.035 8.538 7.212 6.237 6.716 7.583 6.258 4.274 6.611 10.233 8.988 6.275 6.739 8.184 6.792 4.504 5.210
2.104 2.070 2.027 2.011 1.999 2.027 2.062 2.127 2.199 2.779 3.442 3.893 4.315 3.927 3.379 4.732 6.480 5.312 3.500 3.363 3.610 3.931 4.268 4.531 4.779 4.774 4.704 4.834 5.013 4.767 4.408 5.227 6.382 5.133 3.173 2.936 3.217 3.578 3.983 4.118 4.159 3.841 3.391 3.205 3.113 2.880 2.600 1.587 0.309 0.135 0.376 0.192 -9999.000 -9999.000 -9999.000 0.097 0.606 1.162 1.734 2.280 2.812 3.029 3.111 3.011 2.824 2.922 3.159 3.313 3.428 3.353 3.187 3.594 4.300 4.481 4.380 3.839 3.053 3.234 3.960 4.035 3.746 3.533 3.353 3.311 3.350 3.025 2.481 1.712 0.789 0.462 0.536 0.682 0.867 0.731 0.380 0.237 0.238 0.327 0.482 0.472 0.339 0.275 0.266 0.511 0.968 1.471 1.999 2.085 1.801 1.395 0.891 0.635 0.593 0.748 1.074 1.215 1.192 1.142 1.067 0.995 0.924 0.845 0.760 0.702 0.671 0.727 0.871 0.946 0.951 0.964 0.985 1.075 1.240 1.315 1.290 1.094 0.702 0.455 0.376 0.235 0.020 -9999.000 -9999.000 0.124 0.474 0.899 1.417 1.743 1.815 1.769 1.560 1.540 1.782 1.848 1.667 1.318 0.727 0.772 1.771 2.325 2.198 2.235 2.523 2.441 1.761 1.410 1.604 1.793 1.981 2.085 2.037 2.431 3.639 4.182 3.505 2.798 1.981 1.263 0.753 0.721 1.687 2.362 2.441 2.435 2.211 2.180 2.595 2.604 1.671 1.077 1.310 1.418 1.231 1.323 2.108 2.636 2.469 2.248 1.907 1.733 2.011 2.101 1.675 1.360 1.378 1.417 1.497 1.403 0.788 0.286 0.155 0.055 0.048 0.007 0.000 0.000 0.188 0.521 0.744 0.960 1.140 1.326 1.530 1.736 1.949 2.142 2.257 2.355 2.369 2.383 2.407 2.406 2.278 2.144 1.972 1.787 1.524 1.274 1.085 0.908 0.788 0.677 0.610 0.544 0.499 0.445 0.335 0.238 0.236 0.228 0.190 0.148 0.075 0.009 0.000 0.000 0.000 0.011 0.000 0.000 0.000 0.000 0.000 0.000 0.000 0.000 0.000 0.000 0.000 0.000 0.000 0.000 0.000 0.000 0.000 0.000 0.000 0.000 0.000 0.122 0.291 0.455 0.434 0.409 0.193 0.000 0.761 1.533 1.878 2.222 1.943 1.663 1.276 0.891 1.921 2.986 1.969 0.894 2.755 4.701 3.971 3.152 3.525 3.945 4.230 4.503 4.718 4.928 4.556 4.147 3.981 3.834 4.627 5.504 4.796 3.947 4.029 4.204 4.046 3.860 4.284 4.770 5.504 6.255 6.625 6.947 6.583 6.133 7.028 8.091 7.433 6.525 7.582 8.954 8.987 8.814 8.938 9.083 8.648 8.140 8.796 9.657 9.799 9.779 11.778 14.216 14.106 13.453 13.422 13.520 12.731 11.712 8.461 4.724 4.123 4.312 5.326 6.499 7.508 8.526 7.715 6.361 6.868 7.924 6.372 4.037 4.621
2.130 2.061 1.982 1.974 1.975 2.012 2.055 2.092 2.128 3.175 4.383 4.428 4.278 3.692 3.026 4.415 6.201 5.539 4.369 4.107 4.044 4.263 4.544 4.641 4.699 4.671 4.622 4.992 5.460 5.215 4.787 5.501 6.523 5.463 3.818 4.040 4.792 4.478 3.864 3.941 4.223 4.533 4.841 4.799 4.646 4.401 4.125 3.268 2.202 1.878 1.831 1.461 0.971 0.774 0.690 0.861 1.138 1.496 1.891 2.629 3.506 3.656 3.496 3.648 3.929 3.803 3.506 3.439 3.477 3.382 3.219 3.704 4.511 4.541 4.178 3.717 3.196 3.449 4.127 4.132 3.756 3.583 3.530 3.503 3.497 3.029 2.278 1.553 0.843 0.501 0.395 0.603 1.014 0.933 0.521 0.321 0.270 0.314 0.425 0.420 0.329 0.277 0.256 0.230 0.200 0.478 1.000 1.274 1.346 1.197 0.861 0.749 0.827 1.222 1.880 2.053 1.814 1.599 1.404 1.305 1.288 1.207 1.070 1.018 1.046 1.200 1.479 1.567 1.465 1.380 1.311 1.376 1.579 1.725 1.802 1.612 1.130 0.912 0.989 0.916 0.663 0.422 0.227 0.264 0.565 1.062 1.801 2.222 2.235 2.061 1.641 1.619 2.133 2.365 2.210 1.689 0.652 0.673 2.231 2.987 2.549 2.487 2.993 2.861 1.727 1.172 1.546 1.818 1.922 2.036 2.161 2.822 4.429 4.667 2.465 0.932 0.590 0.367 0.377 0.711 1.697 2.081 1.264 0.809 1.065 1.305 1.529 1.647 1.515 1.498 1.772 1.836 1.422 1.191 1.400 1.658 2.010 2.138 1.717 1.571 2.135 2.459 2.147 1.824 1.479 1.338 1.761 1.942 1.426 0.950 0.601 0.346 0.375 0.337 0.088 0.040 0.665 1.160 1.216 1.283 1.384 1.501 1.676 1.882 2.201 2.463 2.498 2.545 2.632 2.707 2.732 2.729 2.604 2.462 2.247 2.018 1.718 1.424 1.166 0.914 0.696 0.521 0.585 0.629 0.573 0.502 0.336 0.202 0.270 0.317 0.229 0.132 0.000 0.000 0.000 0.000 0.007 0.006 0.000 0.000 0.000 0.000 0.000 0.000 0.000 0.000 0.000 0.000 0.000 0.000 0.000 0.000 0.000 0.000 0.000 0.000 0.000 0.000 0.000 0.163 0.595 1.010 1.044 1.075 1.031 0.994 1.775 2.553 2.908 3.258 2.431 1.619 1.305 0.990 1.528 2.084 1.641 1.170 2.887 4.662 3.978 3.216 3.773 4.374 4.684 4.984 5.179 5.372 4.925 4.446 4.378 4.328 4.774 5.258 4.805 4.277 4.292 4.349 4.031 3.677 3.801 3.991 5.068 6.235 6.731 7.149 6.714 6.174 7.912 9.920 9.166 8.056 8.874 9.950 9.223 8.246 9.050 10.156 9.227 7.924 8.872 10.210 11.149 12.031 13.092 14.206 13.837 13.141 13.320 13.708 14.064 14.410 9.494 3.362 1.839 1.394 4.511 8.552 8.232 6.776 6.469 6.464 6.989 7.656 5.950 3.570 4.029
2.138 2.057 1.965 1.961 1.969 2.004 2.044 2.058 2.067 3.406 4.960 4.827 4.401 3.618 2.781 4.125 5.870 5.711 5.181 4.807 4.467 4.571 4.772 4.707 4.586 4.537 4.505 5.127 5.896 5.641 5.144 5.750 6.643 5.794 4.470 5.152 6.376 5.358 3.727 3.768 4.291 5.239 6.305 6.389 6.169 5.925 5.673 5.030 4.253 3.772 3.400 2.847 2.229 1.951 1.799 1.734 1.705 1.762 1.856 2.757 3.976 4.073 3.710 4.249 5.162 4.740 3.746 3.408 3.366 3.346 3.335 4.061 5.137 5.028 4.341 3.996 3.817 4.041 4.481 4.591 4.518 4.387 4.226 3.928 3.555 2.978 2.279 1.642 1.040 0.674 0.455 0.626 1.039 1.053 0.809 0.571 0.340 0.273 0.315 0.320 0.297 0.270 0.241 0.230 0.231 0.340 0.534 0.646 0.692 0.708 0.697 0.791 0.973 1.750 3.010 3.223 2.567 2.051 1.656 1.575 1.767 1.696 1.391 1.310 1.436 1.720 2.154 2.245 2.002 1.796 1.626 1.657 1.894 2.230 2.665 2.627 2.083 2.067 2.625 3.126 3.561 3.019 1.375 0.523 0.592 1.168 2.351 3.027 3.075 2.642 1.602 1.538 2.732 3.416 3.423 3.029 2.083 2.027 3.240 3.733 3.174 2.969 3.291 3.080 2.044 1.628 2.183 2.642 2.946 3.069 2.908 3.181 4.188 4.070 1.965 0.701 0.946 1.118 1.176 1.414 1.991 2.122 1.364 0.958 1.272 1.486 1.493 1.494 1.478 1.622 2.093 2.216 1.583 1.237 1.531 1.782 1.968 2.052 1.851 1.792 2.114 2.322 2.199 1.984 1.532 1.296 1.666 1.870 1.576 1.250 0.847 0.594 0.796 0.924 0.836 0.920 1.597 2.058 1.798 1.620 1.686 1.756 1.845 2.034 2.565 2.945 2.786 2.711 2.926 3.096 3.103 3.085 2.954 2.799 2.539 2.268 1.949 1.626 1.292 0.958 0.618 0.372 0.596 0.764 0.676 0.570 0.340 0.166 0.309 0.410 0.269 0.114 0.000 0.000 0.000 0.015 0.019 0.003 0.000 0.000 0.000 0.000 0.000 0.080 0.090 0.084 0.000 0.000 0.000 0.123 0.126 0.111 0.000 0.000 0.000 0.000 0.000 0.000 0.000 0.181 0.936 1.661 1.769 1.880 2.115 2.357 3.060 3.757 4.117 4.452 2.878 1.328 1.172 1.013 1.028 1.053 1.326 1.587 2.760 3.955 3.796 3.602 4.296 5.011 5.167 5.309 5.358 5.407 4.808 4.183 4.424 4.702 4.948 5.197 5.034 4.839 5.032 5.250 5.028 4.770 3.910 3.018 4.008 5.169 5.772 6.317 6.099 5.795 8.429 11.381 10.095 8.307 9.806 11.715 10.154 8.136 7.652 7.414 7.931 8.528 10.036 11.688 11.938 11.967 11.884 11.800 12.614 13.563 12.986 12.136 12.323 12.717 8.922 4.212 3.540 3.755 4.683 5.827 5.702 5.247 5.346 5.583 6.196 6.908 6.525 5.820 5.547
2.109 2.064 2.014 2.010 2.012 2.017 2.022 2.030 2.038 3.051 4.216 4.764 5.202 4.221 3.021 3.959 5.263 5.527 5.596 5.262 4.856 4.698 4.594 4.392 4.172 4.033 3.914 4.848 6.008 5.610 4.862 5.021 5.404 4.794 3.930 4.317 5.038 4.619 3.879 3.961 4.279 4.937 5.699 5.692 5.456 5.159 4.846 4.928 5.118 4.688 4.062 3.330 2.563 2.208 1.998 1.961 1.984 1.939 1.871 2.448 3.284 3.711 3.957 4.432 5.016 5.139 5.038 4.863 4.668 4.629 4.660 5.082 5.697 5.518 4.952 4.614 4.393 4.777 5.452 5.457 5.132 4.943 4.818 4.381 3.778 3.179 2.578 1.939 1.284 0.917 0.715 0.852 1.196 1.217 1.040 0.863 0.680 0.575 0.523 0.513 0.528 0.496 0.432 0.489 0.625 0.606 0.484 0.486 0.573 0.700 0.861 1.071 1.317 2.382 4.095 4.291 3.257 2.481 1.916 1.872 2.269 2.216 1.771 1.684 1.916 2.286 2.793 2.864 2.517 2.211 1.948 1.941 2.189 2.709 3.498 3.612 3.024 3.214 4.247 5.346 6.472 5.588 2.495 0.778 0.614 1.282 2.913 3.841 3.931 3.224 1.545 1.459 3.364 4.517 4.707 4.480 3.703 3.569 4.321 4.492 3.844 3.488 3.550 3.260 2.445 2.254 3.001 3.689 4.285 4.422 3.847 3.511 3.567 3.090 1.693 1.144 2.054 2.598 2.517 2.453 2.420 2.348 2.181 2.120 2.281 2.321 2.123 1.872 1.514 1.532 2.311 2.565 1.721 1.450 2.419 2.895 2.302 1.998 2.327 2.405 1.916 1.618 1.754 1.778 1.532 1.286 1.056 0.918 0.993 0.988 0.775 0.775 1.387 1.992 2.586 3.110 3.462 3.517 2.629 1.993 2.137 2.215 2.075 2.206 3.267 3.937 3.230 2.794 3.331 3.739 3.672 3.586 3.424 3.234 2.924 2.635 2.430 2.186 1.773 1.323 0.688 0.287 1.010 1.555 1.223 0.878 0.442 0.136 0.548 0.877 0.734 0.555 0.147 0.000 0.318 0.696 0.537 0.362 0.055 0.000 0.000 0.000 0.286 0.751 0.729 0.670 0.247 0.000 0.469 0.957 0.831 0.678 0.187 0.000 0.000 0.000 0.000 0.000 0.011 0.166 1.490 2.735 2.597 2.491 2.949 3.409 4.005 4.597 5.012 5.374 3.524 1.702 1.627 1.546 1.094 0.655 1.281 1.906 2.711 3.521 3.747 3.963 4.608 5.263 5.327 5.379 5.353 5.324 4.794 4.242 4.612 5.021 5.125 5.215 5.323 5.428 5.595 5.773 5.609 5.422 4.244 2.974 3.740 4.682 5.279 5.849 5.877 5.845 8.803 12.093 10.666 8.694 10.384 12.539 10.430 7.771 6.697 5.790 7.381 9.346 11.212 13.069 12.627 11.835 10.740 9.593 11.422 13.784 12.569 10.678 10.663 11.028 8.379 5.099 5.237 6.099 4.805 3.048 3.190 3.737 4.228 4.706 5.404 6.156 7.153 8.183 7.123
2.086 2.071 2.055 2.052 2.051 2.031 2.009 2.013 2.020 2.740 3.556 4.605 5.697 4.597 3.166 3.776 4.702 5.295 5.845 5.592 5.188 4.792 4.400 4.080 3.771 3.561 3.358 4.585 6.126 5.574 4.575 4.282 4.155 3.803 3.391 3.441 3.614 3.841 4.063 4.171 4.257 4.547 4.900 4.764 4.491 4.108 3.694 4.567 5.811 5.430 4.551 3.630 2.697 2.254 1.975 2.026 2.187 2.088 1.899 1.988 2.189 3.087 4.232 4.437 4.292 5.337 6.831 7.010 6.656 6.583 6.627 6.456 6.204 6.019 5.853 5.445 4.931 5.626 6.886 6.618 5.615 5.299 5.324 4.864 4.156 3.620 3.172 2.446 1.572 1.241 1.210 1.321 1.515 1.434 1.189 1.223 1.421 1.394 1.233 1.184 1.207 1.135 1.002 1.252 1.753 1.730 1.353 1.401 1.744 1.881 1.875 2.004 2.232 3.299 5.005 5.031 3.746 2.837 2.226 2.277 2.867 2.902 2.472 2.503 2.930 3.132 3.147 3.057 2.863 2.632 2.371 2.229 2.205 2.666 3.594 3.914 3.626 3.557 3.728 4.075 4.604 4.387 3.328 2.424 1.732 1.855 2.899 3.775 4.439 4.343 3.346 3.199 4.115 4.491 4.184 4.021 4.019 4.278 4.894 5.066 4.635 4.331 4.209 3.779 2.915 2.914 4.149 4.829 4.711 4.542 4.261 4.050 3.958 3.537 2.590 2.246 2.908 3.420 3.653 3.551 2.896 2.579 2.845 3.008 2.997 2.943 2.799 2.618 2.364 2.392 2.999 3.209 2.584 2.424 3.267 3.626 2.905 2.546 3.012 3.102 2.319 1.856 2.153 2.347 2.293 2.025 1.241 0.756 1.020 1.183 1.078 1.188 1.889 2.695 3.766 4.615 4.813 4.645 3.388 2.489 2.712 2.810 2.510 2.608 4.030 4.869 3.703 2.980 3.823 4.451 4.305 4.148 3.941 3.706 3.354 3.050 2.949 2.776 2.300 1.739 0.815 0.270 1.474 2.365 1.774 1.184 0.539 0.110 0.793 1.344 1.200 0.996 0.452 0.090 0.821 1.404 1.080 0.744 0.315 0.000 0.000 0.052 0.821 1.494 1.438 1.315 0.609 0.074 1.052 1.907 1.636 1.328 0.606 0.000 0.000 0.000 0.151 0.285 0.148 0.147 2.136 3.973 3.462 3.017 3.669 4.310 4.777 5.247 5.734 6.146 4.293 2.487 2.459 2.414 1.555 0.724 1.434 2.142 2.729 3.320 3.812 4.298 4.714 5.134 5.160 5.183 5.147 5.109 4.913 4.706 4.975 5.261 5.310 5.351 5.700 6.057 5.864 5.651 5.458 5.266 5.052 4.817 5.104 5.440 5.833 6.233 6.622 7.004 8.732 10.610 10.212 9.564 9.719 9.994 8.359 6.492 7.698 9.233 10.175 11.062 12.422 13.853 12.772 11.338 10.233 9.175 10.245 11.674 11.478 10.981 10.196 9.384 7.917 6.299 6.272 6.569 5.646 4.465 4.948 5.779 6.183 6.495 7.111 7.798 8.571 9.372 8.079
2.079 2.074 2.067 2.072 2.078 2.056 2.031 2.041 2.054 2.657 3.334 3.869 4.397 3.661 2.745 3.533 4.563 4.560 4.414 4.613 4.855 4.488 4.023 3.864 3.756 4.174 4.677 5.122 5.578 5.431 5.147 4.878 4.615 4.484 4.377 4.324 4.288 4.782 5.396 5.439 5.343 5.000 4.607 4.220 3.833 3.850 3.967 4.427 5.006 4.977 4.749 4.296 3.768 3.294 2.843 2.784 2.855 2.658 2.371 2.159 1.977 2.825 4.048 4.182 3.907 5.020 6.676 6.928 6.620 6.342 6.087 6.080 6.157 6.059 5.897 5.672 5.407 6.047 7.120 6.835 5.895 5.392 5.116 4.640 4.052 3.823 3.769 3.001 1.868 1.507 1.561 1.641 1.735 1.623 1.391 1.536 1.905 1.960 1.823 1.754 1.732 1.630 1.476 1.976 2.893 2.812 2.082 2.071 2.548 2.698 2.616 2.784 3.126 4.173 5.753 5.582 4.087 3.139 2.601 2.764 3.492 3.586 3.164 3.281 3.852 3.913 3.526 3.301 3.230 3.065 2.811 2.544 2.256 2.643 3.692 4.222 4.233 3.883 3.192 2.792 2.685 3.157 4.192 4.114 2.893 2.444 2.833 3.650 4.927 5.534 5.377 5.146 4.859 4.285 3.354 3.239 4.103 4.816 5.357 5.602 5.461 5.257 4.976 4.395 3.404 3.595 5.419 5.983 4.777 4.188 4.472 4.689 4.815 4.657 4.063 3.670 3.611 3.887 4.678 4.682 3.397 2.813 3.403 3.701 3.496 3.408 3.519 3.678 3.923 4.085 4.110 4.147 4.184 4.161 4.050 3.952 3.842 3.804 3.944 3.928 3.556 3.410 3.781 4.090 4.254 4.006 2.795 1.991 2.164 2.255 2.132 2.070 2.172 2.530 3.548 4.407 4.823 4.890 3.972 3.365 3.683 3.877 3.699 3.841 4.996 5.590 4.346 3.643 4.746 5.551 5.336 5.101 4.788 4.478 4.170 3.912 3.850 3.748 3.485 3.092 2.164 1.705 3.280 4.329 3.035 1.932 1.662 1.525 2.074 2.496 2.251 2.054 2.096 2.214 2.823 3.208 2.261 1.384 0.868 0.551 1.512 2.367 2.633 2.865 2.775 2.619 1.945 1.464 2.600 3.558 2.966 2.386 1.846 1.313 0.911 0.585 0.972 1.314 1.177 1.172 2.909 4.506 3.929 3.410 3.844 4.282 4.636 4.996 5.442 5.823 4.640 3.474 3.361 3.221 2.029 0.887 1.694 2.490 2.824 3.168 3.889 4.605 4.876 5.148 5.041 4.938 4.925 4.912 4.910 4.908 5.218 5.530 5.415 5.295 5.507 5.747 5.406 5.037 5.207 5.379 5.760 6.160 6.180 6.171 6.457 6.760 7.376 8.020 8.644 9.277 9.684 10.075 8.889 7.559 6.680 5.807 8.759 12.163 12.561 12.594 13.427 14.380 12.765 10.799 9.727 8.776 9.113 9.640 10.434 11.281 9.701 7.720 7.487 7.530 7.298 7.029 6.499 5.908 6.766 7.908 8.234 8.395 8.950 9.591 10.040 10.452 8.974
2.072 2.071 2.070 2.085 2.101 2.083 2.062 2.073 2.088 2.615 3.194 3.239 3.228 2.855 2.430 3.347 4.444 3.870 3.060 3.695 4.546 4.187 3.645 3.652 3.745 4.801 6.008 5.640 5.009 5.300 5.749 5.509 5.138 5.252 5.459 5.328 5.129 5.888 6.854 6.825 6.568 5.557 4.379 3.736 3.228 3.756 4.542 4.315 3.833 4.244 4.887 5.074 5.123 4.638 3.998 3.776 3.687 3.386 3.018 2.589 2.145 2.716 3.638 3.807 3.705 4.406 5.411 5.550 5.357 4.708 3.891 4.534 5.742 5.750 5.275 5.431 5.843 6.080 6.260 6.193 5.999 5.206 4.152 3.656 3.415 3.758 4.377 3.618 2.176 1.693 1.704 1.746 1.804 1.771 1.686 1.755 1.914 2.058 2.185 2.114 1.929 1.809 1.726 2.597 4.054 3.783 2.424 2.006 2.204 2.341 2.433 3.022 3.948 4.865 5.793 5.281 3.721 3.168 3.351 3.733 4.277 4.250 3.778 3.668 3.855 4.085 4.336 4.259 3.918 3.749 3.722 4.005 4.551 4.828 4.886 5.000 5.150 4.658 3.563 3.128 3.324 3.970 5.072 5.053 3.887 3.136 2.829 3.239 4.410 5.159 5.437 5.456 5.186 4.618 3.710 3.465 4.017 4.559 5.080 5.548 5.943 6.020 5.705 5.203 4.451 4.488 5.607 5.899 5.018 4.647 5.012 5.296 5.462 5.422 5.073 4.713 4.341 4.398 5.130 5.168 4.078 3.546 3.958 4.098 3.769 3.722 4.155 4.535 4.835 4.991 4.865 4.895 5.227 5.318 4.937 4.669 4.651 4.588 4.416 4.332 4.417 4.515 4.669 4.880 5.192 5.081 3.994 3.214 3.199 3.157 3.035 2.902 2.735 2.857 3.747 4.486 4.827 4.963 4.484 4.220 4.594 4.841 4.724 4.853 5.711 6.069 4.849 4.221 5.510 6.467 6.293 6.054 5.648 5.271 5.002 4.776 4.717 4.681 4.659 4.442 3.513 3.148 5.093 6.280 4.284 2.687 2.801 2.963 3.382 3.672 3.329 3.160 3.846 4.488 4.960 5.112 3.504 2.055 1.461 1.247 3.309 5.027 4.675 4.364 4.247 4.077 3.521 3.175 4.414 5.406 4.451 3.581 3.372 3.080 2.101 1.288 1.995 2.633 2.609 2.671 3.730 4.683 4.187 3.721 3.697 3.696 3.923 4.156 4.458 4.745 4.694 4.611 4.315 3.978 2.515 1.134 2.052 2.945 2.996 3.070 3.979 4.875 5.107 5.334 4.978 4.627 4.684 4.740 4.723 4.706 5.280 5.855 5.381 4.897 4.247 3.610 3.506 3.412 4.753 6.123 6.186 6.201 6.526 6.860 7.294 7.731 8.130 8.531 8.567 8.590 8.772 8.970 7.454 5.800 6.967 8.348 9.905 11.513 12.246 12.874 12.758 12.579 11.311 9.900 9.229 8.646 9.147 9.795 10.054 10.270 8.666 6.783 7.110 7.780 7.555 7.182 6.873 6.571 7.170 7.943 8.155 8.258 10.095 12.253 11.529 10.233 8.551
